# This PCD file was generated using the MATLAB® pcwrite function
# from Computer Vision System Toolbox®.
# .PCD v.7 - Point Cloud Data file format
VERSION .7
FIELDS x y z
SIZE 4 4 4
TYPE F F F
COUNT 1 1 1
WIDTH 1675
HEIGHT 1
VIEWPOINT 0 0 0 1 0 0 0
POINTS 1675
DATA ascii
-0.240862 1.492568 0.289409
-0.240903 1.492820 0.284273
-0.240935 1.493019 0.279125
-0.240960 1.493173 0.273967
-0.240985 1.493331 0.268809
-0.241010 1.493482 0.263649
-0.241025 1.493579 0.258478
-0.241038 1.493654 0.253303
-0.241042 1.493681 0.248120
-0.241040 1.493670 0.242930
-0.241035 1.493639 0.237737
-0.241029 1.493600 0.232543
-0.241034 1.493630 0.227359
-0.241043 1.493687 0.222180
-0.241050 1.493729 0.216998
-0.241042 1.493682 0.211803
-0.241030 1.493607 0.206604
-0.241020 1.493544 0.201408
-0.241020 1.493548 0.196220
-0.241048 1.493720 0.191055
-0.241096 1.494015 0.185903
-0.241144 1.494315 0.180750
-0.241175 1.494509 0.175583
-0.241194 1.494622 0.170404
-0.241209 1.494716 0.165223
-0.241219 1.494777 0.160038
-0.241225 1.494816 0.154850
-0.241240 1.494910 0.149667
-0.241263 1.495048 0.144488
-0.241281 1.495163 0.139306
-0.241289 1.495213 0.134117
-0.241294 1.495245 0.128927
-0.241304 1.495304 0.123738
-0.241323 1.495425 0.118554
-0.241343 1.495545 0.113368
-0.241354 1.495613 0.108179
-0.241368 1.495699 0.102990
-0.241401 1.495903 0.097808
-0.241446 1.496185 0.092629
-0.241490 1.496461 0.087449
-0.241529 1.496698 0.082264
-0.241572 1.496969 0.077079
-0.241611 1.497205 0.071891
-0.241635 1.497359 0.066697
-0.241655 1.497483 0.061502
-0.241694 1.497722 0.056309
-0.241747 1.498050 0.051118
-0.241802 1.498392 0.045925
-0.241850 1.498686 0.040729
-0.241889 1.498933 0.035529
-0.241921 1.499129 0.030327
-0.241950 1.499310 0.025123
-0.241985 1.499527 0.019918
-0.242019 1.499738 0.014711
-0.242050 1.499931 0.009503
-0.242076 1.500089 0.004294
-0.242092 1.500188 -0.000917
-0.242097 1.500217 -0.006128
-0.242098 1.500225 -0.011339
-0.242100 1.500239 -0.016550
-0.242099 1.500233 -0.021760
-0.242087 1.500154 -0.026970
-0.242072 1.500063 -0.032179
-0.242070 1.500051 -0.037389
-0.242076 1.500088 -0.042600
-0.242082 1.500127 -0.047812
-0.242087 1.500156 -0.053023
-0.242088 1.500162 -0.058234
-0.242081 1.500118 -0.063443
-0.242067 1.500034 -0.068650
-0.242050 1.499926 -0.073855
-0.242035 1.499835 -0.079060
-0.242034 1.499826 -0.084269
-0.242051 1.499937 -0.089485
-0.242086 1.500151 -0.094708
-0.242130 1.500426 -0.099937
-0.242174 1.500698 -0.105168
-0.242216 1.500955 -0.110399
-0.242264 1.501256 -0.115636
-0.242325 1.501632 -0.120881
-0.242399 1.502088 -0.126135
-0.242484 1.502618 -0.131399
-0.242564 1.503114 -0.136663
-0.242627 1.503502 -0.141921
-0.242675 1.503804 -0.147172
-0.242717 1.504060 -0.152422
-0.242754 1.504291 -0.157670
-0.242794 1.504537 -0.162922
-0.242840 1.504822 -0.168179
-0.242887 1.505113 -0.173440
-0.242938 1.505428 -0.178705
-0.242999 1.505806 -0.183980
-0.243072 1.506261 -0.189268
-0.243155 1.506774 -0.194566
-0.243241 1.507307 -0.199870
-0.243321 1.507806 -0.205174
-0.243382 1.508182 -0.210463
-0.243420 1.508420 -0.215736
-0.243449 1.508594 -0.221001
-0.243481 1.508798 -0.226271
-0.243525 1.509067 -0.231553
-0.243565 1.509319 -0.236834
-0.243597 1.509515 -0.242108
-0.243625 1.509691 -0.247380
-0.243663 1.509921 -0.252663
-0.243703 1.510170 -0.257950
-0.243751 1.510467 -0.263247
-0.243811 1.510842 -0.268560
-0.243876 1.511242 -0.273880
-0.243929 1.511569 -0.279190
-0.243975 1.511858 -0.284495
-0.244015 1.512107 -0.289794
-0.244058 1.512369 -0.295097
-0.244100 1.512631 -0.300402
-0.244143 1.512898 -0.305710
-0.244176 1.513103 -0.311007
-0.244196 1.513227 -0.316289
-0.244208 1.513301 -0.321560
-0.244206 1.513287 -0.326814
-0.244191 1.513196 -0.332050
-0.244171 1.513073 -0.337279
-0.244155 1.512974 -0.342512
-0.244145 1.512911 -0.347752
-0.244138 1.512868 -0.352997
-0.244137 1.512863 -0.358251
-0.244146 1.512916 -0.363518
-0.244156 1.512978 -0.368789
-0.244161 1.513008 -0.374051
-0.244161 1.513008 -0.379306
-0.244162 1.513015 -0.384564
-0.244165 1.513034 -0.389824
-0.244168 1.513055 -0.395085
-0.244166 1.513039 -0.400336
-0.244165 1.513032 -0.405589
-0.244166 1.513038 -0.410847
-0.244166 1.513043 -0.416103
-0.244156 1.512977 -0.421340
-0.244138 1.512867 -0.426564
-0.244128 1.512803 -0.431801
-0.244128 1.512804 -0.437056
-0.244129 1.512813 -0.442313
-0.244132 1.512828 -0.447572
-0.244143 1.512895 -0.452847
-0.244166 1.513041 -0.458146
-0.244198 1.513241 -0.463463
-0.244224 1.513399 -0.468768
-0.244229 1.513429 -0.474034
-0.244215 1.513345 -0.479264
-0.244190 1.513191 -0.484471
-0.244157 1.512984 -0.489660
-0.244123 1.512771 -0.494846
-0.244101 1.512638 -0.500056
-0.244084 1.512529 -0.505274
-0.244063 1.512400 -0.510484
-0.244037 1.512240 -0.515683
-0.244010 1.512074 -0.520878
-0.243977 1.511867 -0.526058
-0.243937 1.511621 -0.531223
-0.243893 1.511347 -0.536376
-0.243845 1.511050 -0.541519
-0.243800 1.510773 -0.546668
-0.243753 1.510483 -0.551809
-0.243696 1.510130 -0.556925
-0.243630 1.509721 -0.562019
-0.243566 1.509324 -0.567113
-0.243517 1.509017 -0.572239
-0.243478 1.508774 -0.577388
-0.243448 1.508593 -0.582559
-0.243430 1.508477 -0.587753
-0.243418 1.508403 -0.592964
-0.243408 1.508346 -0.598180
-0.243398 1.508283 -0.603394
-0.243389 1.508226 -0.608610
-0.243375 1.508138 -0.613813
-0.243357 1.508028 -0.619007
-0.243335 1.507889 -0.624187
-0.243307 1.507718 -0.629353
-0.243285 1.507583 -0.634533
-0.214336 1.354097 0.629421
-0.214460 1.354881 0.625079
-0.214641 1.356025 0.620896
-0.214860 1.357408 0.616815
-0.215093 1.358878 0.612763
-0.215323 1.360333 0.608694
-0.215609 1.362141 0.604772
-0.215975 1.364450 0.601058
-0.216307 1.366547 0.597235
-0.216620 1.368525 0.593346
-0.216934 1.370510 0.589446
-0.217297 1.372802 0.585664
-0.217698 1.375339 0.581969
-0.218151 1.378201 0.578393
-0.218664 1.381438 0.574953
-0.219190 1.384762 0.571526
-0.219630 1.387542 0.567854
-0.220004 1.389904 0.563993
-0.220398 1.392396 0.560168
-0.220840 1.395190 0.556446
-0.221320 1.398218 0.552797
-0.221813 1.401334 0.549162
-0.222288 1.404336 0.545460
-0.222793 1.407526 0.541810
-0.223378 1.411223 0.538332
-0.223984 1.415051 0.534877
-0.224543 1.418581 0.531284
-0.225067 1.421891 0.527585
-0.225567 1.425052 0.523808
-0.225999 1.427780 0.519851
-0.226373 1.430142 0.515744
-0.226736 1.432436 0.511595
-0.227059 1.434480 0.507343
-0.227346 1.436291 0.502995
-0.227621 1.438031 0.498609
-0.227880 1.439664 0.494175
-0.228147 1.441351 0.489748
-0.228485 1.443484 0.485459
-0.228863 1.445874 0.481240
-0.229217 1.448108 0.476954
-0.229563 1.450298 0.472638
-0.229925 1.452585 0.468337
-0.230303 1.454969 0.464052
-0.230730 1.457671 0.459851
-0.231202 1.460654 0.455719
-0.231614 1.463253 0.451447
-0.231929 1.465246 0.446973
-0.232232 1.467159 0.442460
-0.232544 1.469128 0.437951
-0.232836 1.470973 0.433392
-0.233073 1.472473 0.428719
-0.233235 1.473498 0.423900
-0.233370 1.474346 0.419022
-0.233545 1.475451 0.414212
-0.233756 1.476789 0.409458
-0.233959 1.478069 0.404679
-0.234148 1.479261 0.399867
-0.234321 1.480357 0.395021
-0.234474 1.481321 0.390133
-0.234608 1.482168 0.385208
-0.234736 1.482978 0.380268
-0.234863 1.483781 0.375320
-0.234999 1.484642 0.370381
-0.235145 1.485563 0.365451
-0.235291 1.486483 0.360514
-0.235431 1.487366 0.355562
-0.235555 1.488154 0.350581
-0.235665 1.488848 0.345573
-0.235774 1.489537 0.340559
-0.235884 1.490230 0.335542
-0.235985 1.490867 0.330507
-0.236071 1.491411 0.325447
-0.236132 1.491798 0.320350
-0.236176 1.492077 0.315227
-0.236220 1.492356 0.310103
-0.236264 1.492633 0.304976
-0.236295 1.492825 0.299829
-0.236321 1.492993 0.294677
-0.236356 1.493214 0.289535
-0.236399 1.493482 0.284399
-0.236428 1.493670 0.279247
-0.236452 1.493821 0.274086
-0.236477 1.493975 0.268925
-0.236499 1.494116 0.263761
-0.236515 1.494218 0.258589
-0.236526 1.494285 0.253410
-0.236532 1.494327 0.248227
-0.236533 1.494333 0.243038
-0.236530 1.494310 0.237843
-0.236525 1.494281 0.232649
-0.236528 1.494297 0.227461
-0.236537 1.494358 0.222280
-0.236543 1.494394 0.217094
-0.236538 1.494365 0.211899
-0.236526 1.494285 0.206698
-0.236515 1.494216 0.201498
-0.236516 1.494223 0.196309
-0.236539 1.494368 0.191138
-0.236584 1.494650 0.185982
-0.236631 1.494948 0.180827
-0.236663 1.495151 0.175658
-0.236679 1.495250 0.170476
-0.236689 1.495317 0.165290
-0.236695 1.495352 0.160100
-0.236700 1.495388 0.154909
-0.236713 1.495466 0.149723
-0.236734 1.495600 0.144542
-0.236753 1.495719 0.139358
-0.236764 1.495790 0.134169
-0.236766 1.495800 0.128974
-0.236771 1.495836 0.123782
-0.236787 1.495934 0.118594
-0.236804 1.496045 0.113406
-0.236820 1.496142 0.108217
-0.236837 1.496250 0.103028
-0.236866 1.496436 0.097843
-0.236908 1.496698 0.092661
-0.236952 1.496980 0.087479
-0.236996 1.497253 0.082294
-0.237039 1.497527 0.077108
-0.237075 1.497754 0.071917
-0.237100 1.497913 0.066722
-0.237121 1.498048 0.061525
-0.237158 1.498278 0.056330
-0.237204 1.498573 0.051136
-0.237254 1.498888 0.045940
-0.237308 1.499228 0.040743
-0.237355 1.499526 0.035543
-0.237386 1.499717 0.030338
-0.237411 1.499880 0.025132
-0.237443 1.500081 0.019925
-0.237479 1.500305 0.014717
-0.237513 1.500520 0.009507
-0.237542 1.500707 0.004296
-0.237560 1.500819 -0.000917
-0.237567 1.500862 -0.006130
-0.237571 1.500885 -0.011343
-0.237571 1.500889 -0.016557
-0.237562 1.500833 -0.021769
-0.237543 1.500709 -0.026980
-0.237524 1.500591 -0.032190
-0.237519 1.500559 -0.037401
-0.237529 1.500625 -0.042615
-0.237542 1.500708 -0.047830
-0.237552 1.500768 -0.053045
-0.237555 1.500784 -0.058258
-0.237549 1.500750 -0.063470
-0.237534 1.500655 -0.068678
-0.237513 1.500525 -0.073884
-0.237498 1.500424 -0.079091
-0.237500 1.500441 -0.084303
-0.237523 1.500585 -0.089524
-0.237562 1.500830 -0.094751
-0.237610 1.501136 -0.099985
-0.237655 1.501417 -0.105218
-0.237696 1.501680 -0.110453
-0.237748 1.502005 -0.115694
-0.237816 1.502438 -0.120946
-0.237897 1.502951 -0.126207
-0.237977 1.503450 -0.131471
-0.238046 1.503891 -0.136734
-0.238106 1.504269 -0.141993
-0.238157 1.504593 -0.147250
-0.238199 1.504856 -0.152502
-0.238239 1.505108 -0.157756
-0.238282 1.505381 -0.163013
-0.238329 1.505677 -0.168275
-0.238378 1.505984 -0.173540
-0.238429 1.506311 -0.178810
-0.238488 1.506680 -0.184087
-0.238562 1.507149 -0.189379
-0.238645 1.507671 -0.194682
-0.238729 1.508206 -0.199989
-0.238815 1.508745 -0.205301
-0.238877 1.509136 -0.210596
-0.238918 1.509396 -0.215875
-0.238947 1.509581 -0.221145
-0.238978 1.509777 -0.226418
-0.239017 1.510027 -0.231701
-0.239060 1.510297 -0.236988
-0.239090 1.510486 -0.242264
-0.239127 1.510721 -0.247549
-0.239162 1.510937 -0.252833
-0.239200 1.511179 -0.258122
-0.239240 1.511431 -0.263415
-0.239294 1.511773 -0.268726
-0.239358 1.512179 -0.274050
-0.239416 1.512544 -0.279370
-0.239465 1.512851 -0.284682
-0.239509 1.513133 -0.289990
-0.239548 1.513380 -0.295294
-0.239589 1.513639 -0.300602
-0.239629 1.513893 -0.305911
-0.239668 1.514136 -0.311219
-0.239689 1.514269 -0.316506
-0.239703 1.514356 -0.321785
-0.239701 1.514347 -0.327043
-0.239687 1.514259 -0.332283
-0.239670 1.514152 -0.337519
-0.239657 1.514068 -0.342759
-0.239644 1.513982 -0.347999
-0.239637 1.513939 -0.353247
-0.239634 1.513922 -0.358502
-0.239642 1.513975 -0.363773
-0.239651 1.514028 -0.369045
-0.239657 1.514067 -0.374313
-0.239658 1.514072 -0.379573
-0.239657 1.514067 -0.384831
-0.239659 1.514078 -0.390093
-0.239659 1.514079 -0.395352
-0.239655 1.514057 -0.400605
-0.239652 1.514036 -0.405858
-0.239655 1.514056 -0.411123
-0.239656 1.514059 -0.416383
-0.239644 1.513984 -0.421621
-0.239625 1.513863 -0.426845
-0.239616 1.513810 -0.432089
-0.239620 1.513834 -0.437353
-0.239625 1.513866 -0.442621
-0.239629 1.513892 -0.447887
-0.239641 1.513969 -0.453168
-0.239666 1.514126 -0.458475
-0.239698 1.514325 -0.463795
-0.239722 1.514475 -0.469101
-0.239725 1.514496 -0.474368
-0.239710 1.514400 -0.479598
-0.239687 1.514258 -0.484813
-0.239664 1.514112 -0.490025
-0.239638 1.513949 -0.495231
-0.239612 1.513782 -0.500435
-0.239592 1.513654 -0.505650
-0.239572 1.513528 -0.510865
-0.239552 1.513401 -0.516078
-0.239530 1.513264 -0.521288
-0.239492 1.513023 -0.526460
-0.239446 1.512736 -0.531615
-0.239401 1.512447 -0.536767
-0.239357 1.512169 -0.541920
-0.239312 1.511890 -0.547072
-0.239262 1.511573 -0.552207
-0.239208 1.511231 -0.557332
-0.239159 1.510918 -0.562464
-0.239106 1.510584 -0.567587
-0.239059 1.510291 -0.572722
-0.239010 1.509981 -0.577850
-0.238978 1.509776 -0.583015
-0.238960 1.509663 -0.588215
-0.238947 1.509578 -0.593426
-0.238939 1.509533 -0.598651
-0.238934 1.509498 -0.603880
-0.238919 1.509405 -0.609086
-0.238902 1.509300 -0.614286
-0.238875 1.509128 -0.619458
-0.238848 1.508953 -0.624627
-0.238815 1.508746 -0.629782
-0.238793 1.508610 -0.634966
-0.210346 1.355324 0.629991
-0.210467 1.356107 0.625645
-0.210646 1.357257 0.621461
-0.210859 1.358630 0.617370
-0.211089 1.360114 0.613320
-0.211298 1.361458 0.609197
-0.211553 1.363107 0.605201
-0.211902 1.365355 0.601456
-0.212260 1.367659 0.597721
-0.212584 1.369747 0.593876
-0.212881 1.371659 0.589940
-0.213197 1.373697 0.586045
-0.213563 1.376056 0.582272
-0.214024 1.379028 0.578740
-0.214574 1.382572 0.575425
-0.215137 1.386197 0.572119
-0.215587 1.389096 0.568490
-0.215910 1.391175 0.564509
-0.216225 1.393207 0.560494
-0.216618 1.395737 0.556664
-0.217091 1.398788 0.553022
-0.217620 1.402193 0.549498
-0.218142 1.405560 0.545936
-0.218643 1.408784 0.542295
-0.219155 1.412085 0.538661
-0.219670 1.415408 0.535012
-0.220206 1.418856 0.531387
-0.220774 1.422517 0.527817
-0.221346 1.426203 0.524231
-0.221792 1.429079 0.520324
-0.222130 1.431257 0.516146
-0.222459 1.433373 0.511930
-0.222756 1.435290 0.507630
-0.223027 1.437037 0.503256
-0.223314 1.438883 0.498905
-0.223622 1.440871 0.494589
-0.223936 1.442894 0.490272
-0.224272 1.445059 0.485988
-0.224614 1.447260 0.481701
-0.224934 1.449322 0.477354
-0.225272 1.451502 0.473030
-0.225634 1.453835 0.468741
-0.226010 1.456257 0.464463
-0.226461 1.459163 0.460322
-0.226935 1.462214 0.456206
-0.227314 1.464657 0.451880
-0.227601 1.466506 0.447357
-0.227900 1.468430 0.442844
-0.228220 1.470496 0.438359
-0.228505 1.472329 0.433791
-0.228716 1.473692 0.429074
-0.228863 1.474637 0.424227
-0.228998 1.475511 0.419354
-0.229167 1.476597 0.414533
-0.229355 1.477809 0.409741
-0.229542 1.479011 0.404937
-0.229723 1.480179 0.400115
-0.229886 1.481232 0.395255
-0.230008 1.482018 0.390317
-0.230114 1.482700 0.385346
-0.230238 1.483500 0.380402
-0.230370 1.484349 0.375464
-0.230498 1.485175 0.370514
-0.230627 1.486007 0.365560
-0.230768 1.486913 0.360618
-0.230910 1.487827 0.355672
-0.231029 1.488594 0.350685
-0.231127 1.489228 0.345661
-0.231235 1.489920 0.340647
-0.231351 1.490666 0.335640
-0.231456 1.491344 0.330612
-0.231540 1.491886 0.325551
-0.231601 1.492283 0.320454
-0.231643 1.492553 0.315328
-0.231684 1.492817 0.310198
-0.231726 1.493088 0.305068
-0.231759 1.493295 0.299924
-0.231787 1.493476 0.294773
-0.231823 1.493708 0.289630
-0.231864 1.493974 0.284493
-0.231897 1.494184 0.279343
-0.231919 1.494328 0.274179
-0.231942 1.494475 0.269015
-0.231965 1.494627 0.263851
-0.231982 1.494733 0.258678
-0.231992 1.494798 0.253497
-0.231999 1.494842 0.248313
-0.232002 1.494864 0.243124
-0.231998 1.494838 0.237927
-0.231994 1.494815 0.232732
-0.231999 1.494844 0.227544
-0.232008 1.494904 0.222361
-0.232015 1.494944 0.217174
-0.232013 1.494935 0.211980
-0.232002 1.494862 0.206778
-0.231989 1.494780 0.201574
-0.231988 1.494771 0.196381
-0.232009 1.494907 0.191207
-0.232051 1.495176 0.186048
-0.232096 1.495470 0.180890
-0.232129 1.495685 0.175721
-0.232148 1.495801 0.170539
-0.232155 1.495850 0.165349
-0.232157 1.495860 0.160154
-0.232161 1.495890 0.154961
-0.232174 1.495973 0.149774
-0.232193 1.496097 0.144590
-0.232211 1.496210 0.139404
-0.232221 1.496278 0.134213
-0.232226 1.496307 0.129018
-0.232231 1.496341 0.123824
-0.232243 1.496417 0.118632
-0.232261 1.496535 0.113443
-0.232284 1.496683 0.108256
-0.232310 1.496850 0.103069
-0.232340 1.497041 0.097882
-0.232375 1.497267 0.092696
-0.232419 1.497547 0.087512
-0.232462 1.497827 0.082326
-0.232502 1.498084 0.077137
-0.232532 1.498279 0.071943
-0.232555 1.498427 0.066745
-0.232580 1.498589 0.061547
-0.232612 1.498795 0.056349
-0.232647 1.499021 0.051151
-0.232692 1.499309 0.045953
-0.232751 1.499692 0.040756
-0.232806 1.500046 0.035555
-0.232840 1.500266 0.030350
-0.232868 1.500445 0.025142
-0.232900 1.500648 0.019933
-0.232935 1.500872 0.014722
-0.232965 1.501067 0.009510
-0.232990 1.501230 0.004297
-0.233010 1.501359 -0.000917
-0.233026 1.501463 -0.006133
-0.233037 1.501530 -0.011348
-0.233038 1.501540 -0.016564
-0.233029 1.501478 -0.021778
-0.233005 1.501328 -0.026991
-0.232984 1.501188 -0.032203
-0.232978 1.501154 -0.037416
-0.232991 1.501237 -0.042633
-0.233009 1.501354 -0.047851
-0.233024 1.501449 -0.053069
-0.233027 1.501471 -0.058285
-0.233024 1.501446 -0.063499
-0.233008 1.501346 -0.068710
-0.232986 1.501204 -0.073918
-0.232975 1.501131 -0.079128
-0.232986 1.501206 -0.084346
-0.233010 1.501357 -0.089570
-0.233050 1.501615 -0.094801
-0.233102 1.501954 -0.100039
-0.233144 1.502222 -0.105275
-0.233181 1.502463 -0.110510
-0.233236 1.502815 -0.115756
-0.233316 1.503330 -0.121018
-0.233403 1.503893 -0.126286
-0.233476 1.504359 -0.131551
-0.233532 1.504723 -0.136809
-0.233586 1.505071 -0.142069
-0.233643 1.505440 -0.147332
-0.233690 1.505743 -0.152592
-0.233733 1.506020 -0.157851
-0.233782 1.506331 -0.163116
-0.233834 1.506665 -0.168385
-0.233885 1.506998 -0.173657
-0.233936 1.507324 -0.178930
-0.233991 1.507681 -0.184209
-0.234066 1.508162 -0.189507
-0.234155 1.508736 -0.194819
-0.234250 1.509350 -0.200141
-0.234326 1.509835 -0.205450
-0.234387 1.510234 -0.210750
-0.234430 1.510506 -0.216034
-0.234461 1.510709 -0.221311
-0.234493 1.510913 -0.226588
-0.234530 1.511153 -0.231873
-0.234571 1.511418 -0.237164
-0.234606 1.511644 -0.242450
-0.234643 1.511883 -0.247740
-0.234687 1.512167 -0.253038
-0.234727 1.512421 -0.258334
-0.234763 1.512655 -0.263628
-0.234821 1.513030 -0.268949
-0.234881 1.513416 -0.274274
-0.234939 1.513790 -0.279600
-0.234992 1.514132 -0.284922
-0.235033 1.514395 -0.290232
-0.235070 1.514632 -0.295539
-0.235108 1.514875 -0.300848
-0.235153 1.515165 -0.306168
-0.235187 1.515387 -0.311477
-0.235216 1.515574 -0.316779
-0.235228 1.515652 -0.322060
-0.235228 1.515647 -0.327323
-0.235217 1.515577 -0.332573
-0.235203 1.515487 -0.337817
-0.235191 1.515408 -0.343063
-0.235182 1.515352 -0.348313
-0.235176 1.515318 -0.353569
-0.235169 1.515270 -0.358821
-0.235168 1.515265 -0.364083
-0.235178 1.515330 -0.369362
-0.235185 1.515373 -0.374636
-0.235186 1.515380 -0.379901
-0.235186 1.515379 -0.385165
-0.235185 1.515373 -0.390426
-0.235183 1.515362 -0.395687
-0.235177 1.515322 -0.400940
-0.235178 1.515330 -0.406206
-0.235181 1.515349 -0.411474
-0.235179 1.515332 -0.416733
-0.235168 1.515262 -0.421977
-0.235149 1.515141 -0.427206
-0.235145 1.515113 -0.432461
-0.235150 1.515146 -0.437733
-0.235159 1.515208 -0.443013
-0.235169 1.515267 -0.448294
-0.235191 1.515412 -0.453600
-0.235218 1.515586 -0.458917
-0.235250 1.515791 -0.464244
-0.235264 1.515885 -0.469538
-0.235266 1.515896 -0.474807
-0.235254 1.515815 -0.480046
-0.235237 1.515711 -0.485278
-0.235211 1.515539 -0.490487
-0.235186 1.515376 -0.495698
-0.235164 1.515239 -0.500916
-0.235147 1.515130 -0.506143
-0.235125 1.514987 -0.511357
-0.235105 1.514856 -0.516575
-0.235083 1.514719 -0.521789
-0.235050 1.514504 -0.526976
-0.235015 1.514275 -0.532156
-0.234976 1.514026 -0.537327
-0.234934 1.513756 -0.542489
-0.234890 1.513473 -0.547645
-0.234844 1.513175 -0.552793
-0.234798 1.512879 -0.557939
-0.234747 1.512553 -0.563073
-0.234691 1.512192 -0.568191
-0.234638 1.511850 -0.573314
-0.234587 1.511522 -0.578439
-0.234550 1.511284 -0.583597
-0.234530 1.511150 -0.588795
-0.234516 1.511060 -0.594008
-0.234506 1.510997 -0.599232
-0.234498 1.510946 -0.604460
-0.234482 1.510845 -0.609667
-0.234461 1.510705 -0.614858
-0.234435 1.510540 -0.620037
-0.234404 1.510344 -0.625203
-0.234369 1.510115 -0.630354
-0.234348 1.509978 -0.635541
-0.206356 1.356608 0.630588
-0.206471 1.357359 0.626222
-0.206641 1.358482 0.622021
-0.206847 1.359835 0.617918
-0.207070 1.361300 0.613855
-0.207270 1.362616 0.609716
-0.207509 1.364188 0.605681
-0.207845 1.366396 0.601915
-0.208196 1.368704 0.598178
-0.208512 1.370778 0.594323
-0.208794 1.372634 0.590360
-0.209092 1.374591 0.586427
-0.209441 1.376886 0.582623
-0.209894 1.379863 0.579090
-0.210441 1.383458 0.575794
-0.210993 1.387091 0.572488
-0.211434 1.389987 0.568855
-0.211737 1.391982 0.564837
-0.212027 1.393890 0.560769
-0.212397 1.396319 0.556896
-0.212853 1.399318 0.553232
-0.213377 1.402760 0.549720
-0.213897 1.406180 0.546177
-0.214382 1.409367 0.542519
-0.214849 1.412443 0.538797
-0.215297 1.415385 0.535003
-0.215788 1.418615 0.531297
-0.216380 1.422503 0.527812
-0.216980 1.426449 0.524321
-0.217410 1.429275 0.520396
-0.217716 1.431289 0.516157
-0.218033 1.433371 0.511929
-0.218340 1.435388 0.507664
-0.218633 1.437318 0.503355
-0.218949 1.439396 0.499082
-0.219297 1.441683 0.494868
-0.219653 1.444024 0.490656
-0.219994 1.446261 0.486393
-0.220303 1.448294 0.482046
-0.220614 1.450338 0.477688
-0.220973 1.452702 0.473421
-0.221357 1.455226 0.469189
-0.221735 1.457710 0.464927
-0.222158 1.460493 0.460741
-0.222586 1.463305 0.456546
-0.222935 1.465601 0.452172
-0.223212 1.467418 0.447635
-0.223496 1.469286 0.443102
-0.223805 1.471318 0.438604
-0.224090 1.473191 0.434045
-0.224300 1.474571 0.429330
-0.224443 1.475512 0.424479
-0.224580 1.476414 0.419610
-0.224747 1.477507 0.414789
-0.224926 1.478688 0.409984
-0.225101 1.479841 0.405164
-0.225277 1.480992 0.400335
-0.225437 1.482049 0.395473
-0.225562 1.482871 0.390542
-0.225661 1.483519 0.385559
-0.225770 1.484234 0.380590
-0.225894 1.485048 0.375640
-0.226016 1.485850 0.370682
-0.226133 1.486625 0.365712
-0.226266 1.487494 0.360759
-0.226402 1.488388 0.355806
-0.226515 1.489131 0.350811
-0.226606 1.489735 0.345779
-0.226710 1.490413 0.340760
-0.226823 1.491158 0.335751
-0.226926 1.491837 0.330722
-0.227009 1.492381 0.325659
-0.227068 1.492766 0.320558
-0.227108 1.493035 0.315429
-0.227151 1.493316 0.310302
-0.227194 1.493599 0.305173
-0.227225 1.493798 0.300025
-0.227250 1.493966 0.294869
-0.227284 1.494190 0.289724
-0.227324 1.494452 0.284584
-0.227357 1.494670 0.279434
-0.227379 1.494812 0.274268
-0.227401 1.494956 0.269102
-0.227424 1.495106 0.263936
-0.227442 1.495226 0.258763
-0.227451 1.495290 0.253581
-0.227459 1.495337 0.248395
-0.227461 1.495353 0.243203
-0.227459 1.495340 0.238007
-0.227457 1.495328 0.232812
-0.227461 1.495351 0.227621
-0.227470 1.495412 0.222436
-0.227478 1.495462 0.217249
-0.227478 1.495461 0.212055
-0.227468 1.495399 0.206852
-0.227457 1.495323 0.201648
-0.227458 1.495332 0.196455
-0.227480 1.495475 0.191279
-0.227515 1.495710 0.186114
-0.227555 1.495973 0.180951
-0.227590 1.496202 0.175781
-0.227610 1.496331 0.170599
-0.227616 1.496372 0.165406
-0.227617 1.496379 0.160210
-0.227623 1.496418 0.155016
-0.227634 1.496493 0.149826
-0.227652 1.496605 0.144639
-0.227668 1.496711 0.139450
-0.227679 1.496784 0.134258
-0.227685 1.496823 0.129063
-0.227692 1.496872 0.123868
-0.227706 1.496963 0.118675
-0.227726 1.497096 0.113486
-0.227752 1.497266 0.108298
-0.227783 1.497471 0.103112
-0.227817 1.497691 0.097925
-0.227851 1.497915 0.092737
-0.227889 1.498165 0.087548
-0.227929 1.498426 0.082359
-0.227965 1.498663 0.077166
-0.227992 1.498841 0.071970
-0.228013 1.498984 0.066770
-0.228038 1.499144 0.061570
-0.228065 1.499327 0.056369
-0.228095 1.499519 0.051168
-0.228137 1.499796 0.045968
-0.228196 1.500185 0.040769
-0.228254 1.500565 0.035568
-0.228295 1.500835 0.030361
-0.228326 1.501040 0.025151
-0.228358 1.501252 0.019941
-0.228393 1.501479 0.014728
-0.228422 1.501671 0.009514
-0.228444 1.501815 0.004299
-0.228466 1.501958 -0.000918
-0.228489 1.502114 -0.006135
-0.228505 1.502217 -0.011354
-0.228509 1.502240 -0.016572
-0.228501 1.502189 -0.021789
-0.228482 1.502064 -0.027004
-0.228462 1.501932 -0.032219
-0.228457 1.501899 -0.037435
-0.228471 1.501995 -0.042654
-0.228493 1.502139 -0.047876
-0.228509 1.502242 -0.053097
-0.228514 1.502274 -0.058316
-0.228510 1.502250 -0.063533
-0.228493 1.502138 -0.068746
-0.228470 1.501983 -0.073956
-0.228460 1.501920 -0.079170
-0.228473 1.502006 -0.084391
-0.228499 1.502175 -0.089618
-0.228540 1.502447 -0.094853
-0.228593 1.502792 -0.100095
-0.228639 1.503098 -0.105336
-0.228678 1.503351 -0.110576
-0.228735 1.503727 -0.115826
-0.228816 1.504259 -0.121092
-0.228904 1.504840 -0.126366
-0.228977 1.505318 -0.131635
-0.229032 1.505677 -0.136896
-0.229086 1.506035 -0.142160
-0.229144 1.506416 -0.147428
-0.229193 1.506741 -0.152693
-0.229240 1.507048 -0.157959
-0.229291 1.507381 -0.163230
-0.229346 1.507747 -0.168506
-0.229398 1.508089 -0.173783
-0.229449 1.508422 -0.179061
-0.229506 1.508796 -0.184346
-0.229581 1.509289 -0.189648
-0.229673 1.509896 -0.194969
-0.229761 1.510476 -0.200290
-0.229841 1.511001 -0.205608
-0.229900 1.511389 -0.210911
-0.229939 1.511646 -0.216197
-0.229974 1.511872 -0.221481
-0.230011 1.512114 -0.226769
-0.230053 1.512390 -0.232063
-0.230091 1.512640 -0.237355
-0.230126 1.512876 -0.242647
-0.230166 1.513134 -0.247945
-0.230209 1.513420 -0.253248
-0.230255 1.513718 -0.258556
-0.230296 1.513993 -0.263862
-0.230355 1.514379 -0.269189
-0.230412 1.514752 -0.274516
-0.230463 1.515090 -0.279840
-0.230501 1.515335 -0.285149
-0.230540 1.515598 -0.290463
-0.230591 1.515931 -0.295792
-0.230633 1.516207 -0.301112
-0.230674 1.516478 -0.306433
-0.230710 1.516711 -0.311749
-0.230740 1.516906 -0.317058
-0.230757 1.517023 -0.322351
-0.230765 1.517070 -0.327631
-0.230760 1.517038 -0.332893
-0.230744 1.516935 -0.338139
-0.230733 1.516861 -0.343392
-0.230727 1.516823 -0.348652
-0.230719 1.516774 -0.353909
-0.230711 1.516719 -0.359164
-0.230708 1.516700 -0.364428
-0.230715 1.516747 -0.369707
-0.230727 1.516824 -0.374995
-0.230728 1.516832 -0.380265
-0.230724 1.516801 -0.385526
-0.230723 1.516797 -0.390793
-0.230720 1.516776 -0.396056
-0.230716 1.516752 -0.401318
-0.230719 1.516769 -0.406591
-0.230724 1.516802 -0.411868
-0.230722 1.516788 -0.417133
-0.230711 1.516721 -0.422383
-0.230699 1.516642 -0.427629
-0.230697 1.516629 -0.432893
-0.230704 1.516671 -0.438173
-0.230714 1.516735 -0.443460
-0.230725 1.516809 -0.448750
-0.230748 1.516960 -0.454064
-0.230781 1.517175 -0.459398
-0.230806 1.517343 -0.464719
-0.230826 1.517472 -0.470029
-0.230824 1.517462 -0.475297
-0.230815 1.517402 -0.480549
-0.230799 1.517296 -0.485786
-0.230773 1.517127 -0.491001
-0.230748 1.516964 -0.496217
-0.230730 1.516846 -0.501447
-0.230714 1.516738 -0.506680
-0.230694 1.516606 -0.511904
-0.230675 1.516481 -0.517129
-0.230662 1.516393 -0.522366
-0.230641 1.516256 -0.527585
-0.230613 1.516072 -0.532787
-0.230582 1.515872 -0.537982
-0.230547 1.515640 -0.543164
-0.230504 1.515359 -0.548327
-0.230464 1.515095 -0.553494
-0.230417 1.514787 -0.558643
-0.230371 1.514484 -0.563792
-0.230315 1.514115 -0.568913
-0.230249 1.513682 -0.574008
-0.230198 1.513344 -0.579137
-0.230160 1.513099 -0.584299
-0.230136 1.512938 -0.589491
-0.230120 1.512835 -0.594706
-0.230105 1.512733 -0.599920
-0.230091 1.512641 -0.605138
-0.230071 1.512514 -0.610340
-0.230048 1.512363 -0.615533
-0.230025 1.512208 -0.620722
-0.229997 1.512028 -0.625900
-0.229968 1.511832 -0.631070
-0.229950 1.511718 -0.636273
-0.202291 1.357437 0.630973
-0.202400 1.358167 0.626595
-0.202563 1.359262 0.622378
-0.202762 1.360595 0.618263
-0.202976 1.362031 0.614185
-0.203182 1.363416 0.610074
-0.203427 1.365059 0.606067
-0.203760 1.367289 0.602308
-0.204091 1.369513 0.598531
-0.204404 1.371611 0.594684
-0.204672 1.373414 0.590695
-0.204942 1.375221 0.586695
-0.205270 1.377427 0.582852
-0.205715 1.380411 0.579320
-0.206238 1.383923 0.575987
-0.206748 1.387345 0.572592
-0.207158 1.390097 0.568900
-0.207478 1.392240 0.564941
-0.207801 1.394407 0.560977
-0.208164 1.396844 0.557106
-0.208583 1.399654 0.553365
-0.209078 1.402978 0.549806
-0.209585 1.406379 0.546254
-0.210057 1.409545 0.542588
-0.210504 1.412544 0.538836
-0.210935 1.415436 0.535022
-0.211409 1.418618 0.531298
-0.211988 1.422507 0.527813
-0.212528 1.426125 0.524202
-0.212899 1.428615 0.520155
-0.213195 1.430607 0.515912
-0.213534 1.432876 0.511753
-0.213870 1.435130 0.507573
-0.214201 1.437352 0.503367
-0.214548 1.439683 0.499182
-0.214915 1.442144 0.495026
-0.215275 1.444561 0.490838
-0.215603 1.446762 0.486561
-0.215904 1.448785 0.482209
-0.216256 1.451146 0.477954
-0.216671 1.453928 0.473821
-0.217080 1.456675 0.469656
-0.217454 1.459183 0.465396
-0.217838 1.461762 0.461142
-0.218212 1.464268 0.456846
-0.218530 1.466403 0.452419
-0.218803 1.468235 0.447884
-0.219068 1.470017 0.443322
-0.219362 1.471984 0.438803
-0.219651 1.473928 0.434262
-0.219871 1.475404 0.429573
-0.220008 1.476319 0.424711
-0.220134 1.477166 0.419824
-0.220297 1.478264 0.415001
-0.220485 1.479524 0.410216
-0.220656 1.480670 0.405391
-0.220820 1.481768 0.400545
-0.220983 1.482864 0.395690
-0.221126 1.483821 0.390792
-0.221225 1.484491 0.385812
-0.221318 1.485108 0.380814
-0.221429 1.485857 0.375845
-0.221553 1.486686 0.370891
-0.221670 1.487476 0.365921
-0.221788 1.488264 0.360946
-0.221906 1.489055 0.355965
-0.222010 1.489758 0.350959
-0.222103 1.490383 0.345929
-0.222200 1.491032 0.340901
-0.222304 1.491725 0.335878
-0.222401 1.492377 0.330841
-0.222480 1.492907 0.325773
-0.222534 1.493272 0.320666
-0.222576 1.493552 0.315539
-0.222621 1.493854 0.310414
-0.222665 1.494152 0.305286
-0.222693 1.494340 0.300134
-0.222715 1.494484 0.294972
-0.222746 1.494696 0.289822
-0.222784 1.494951 0.284679
-0.222815 1.495154 0.279524
-0.222835 1.495293 0.274356
-0.222858 1.495444 0.269190
-0.222879 1.495587 0.264021
-0.222898 1.495712 0.258848
-0.222909 1.495791 0.253666
-0.222915 1.495830 0.248477
-0.222916 1.495833 0.243282
-0.222914 1.495820 0.238084
-0.222913 1.495814 0.232887
-0.222919 1.495852 0.227697
-0.222927 1.495910 0.222510
-0.222934 1.495957 0.217321
-0.222934 1.495954 0.212125
-0.222925 1.495898 0.206921
-0.222920 1.495862 0.201720
-0.222929 1.495922 0.196532
-0.222951 1.496068 0.191355
-0.222979 1.496259 0.186182
-0.223013 1.496489 0.181013
-0.223047 1.496716 0.175842
-0.223068 1.496856 0.170659
-0.223073 1.496886 0.165463
-0.223074 1.496895 0.160265
-0.223081 1.496942 0.155070
-0.223093 1.497021 0.149879
-0.223107 1.497118 0.144688
-0.223124 1.497232 0.139499
-0.223136 1.497308 0.134305
-0.223141 1.497343 0.129107
-0.223149 1.497401 0.123911
-0.223166 1.497514 0.118719
-0.223189 1.497666 0.113529
-0.223216 1.497850 0.108340
-0.223249 1.498072 0.103153
-0.223287 1.498323 0.097966
-0.223325 1.498577 0.092778
-0.223360 1.498812 0.087586
-0.223392 1.499030 0.082392
-0.223425 1.499252 0.077197
-0.223454 1.499442 0.071998
-0.223476 1.499590 0.066797
-0.223496 1.499729 0.061594
-0.223521 1.499895 0.056391
-0.223548 1.500074 0.051187
-0.223589 1.500349 0.045985
-0.223642 1.500705 0.040784
-0.223695 1.501062 0.035579
-0.223740 1.501367 0.030372
-0.223772 1.501578 0.025160
-0.223802 1.501783 0.019948
-0.223837 1.502018 0.014734
-0.223868 1.502225 0.009518
-0.223894 1.502398 0.004300
-0.223919 1.502567 -0.000918
-0.223946 1.502746 -0.006138
-0.223961 1.502848 -0.011358
-0.223964 1.502865 -0.016579
-0.223958 1.502824 -0.021798
-0.223941 1.502716 -0.027016
-0.223921 1.502582 -0.032233
-0.223918 1.502558 -0.037451
-0.223935 1.502674 -0.042673
-0.223958 1.502829 -0.047898
-0.223975 1.502939 -0.053122
-0.223980 1.502976 -0.058343
-0.223975 1.502939 -0.063562
-0.223959 1.502837 -0.068778
-0.223937 1.502688 -0.073991
-0.223926 1.502613 -0.079206
-0.223936 1.502677 -0.084429
-0.223962 1.502854 -0.089659
-0.224005 1.503142 -0.094897
-0.224055 1.503480 -0.100141
-0.224103 1.503801 -0.105385
-0.224150 1.504113 -0.110632
-0.224210 1.504516 -0.115887
-0.224289 1.505045 -0.121156
-0.224373 1.505613 -0.126431
-0.224449 1.506124 -0.131705
-0.224512 1.506548 -0.136975
-0.224570 1.506935 -0.142245
-0.224628 1.507322 -0.147517
-0.224677 1.507651 -0.152785
-0.224719 1.507933 -0.158052
-0.224768 1.508263 -0.163325
-0.224821 1.508615 -0.168603
-0.224875 1.508978 -0.173885
-0.224928 1.509337 -0.179169
-0.224987 1.509733 -0.184460
-0.225061 1.510226 -0.189766
-0.225148 1.510810 -0.195087
-0.225237 1.511411 -0.200414
-0.225318 1.511951 -0.205738
-0.225375 1.512333 -0.211043
-0.225413 1.512591 -0.216332
-0.225447 1.512821 -0.221620
-0.225488 1.513096 -0.226916
-0.225530 1.513377 -0.232215
-0.225571 1.513653 -0.237514
-0.225610 1.513915 -0.242814
-0.225646 1.514154 -0.248112
-0.225682 1.514398 -0.253412
-0.225724 1.514675 -0.258719
-0.225770 1.514984 -0.264034
-0.225822 1.515336 -0.269359
-0.225882 1.515740 -0.274696
-0.225927 1.516037 -0.280015
-0.225958 1.516251 -0.285321
-0.225994 1.516486 -0.290633
-0.226039 1.516789 -0.295959
-0.226088 1.517118 -0.301293
-0.226137 1.517449 -0.306630
-0.226180 1.517738 -0.311960
-0.226211 1.517946 -0.317275
-0.226232 1.518087 -0.322577
-0.226242 1.518153 -0.327865
-0.226239 1.518135 -0.333134
-0.226228 1.518057 -0.338390
-0.226215 1.517972 -0.343643
-0.226207 1.517918 -0.348903
-0.226201 1.517878 -0.354166
-0.226194 1.517829 -0.359427
-0.226190 1.517804 -0.364693
-0.226198 1.517856 -0.369978
-0.226208 1.517926 -0.375267
-0.226209 1.517931 -0.380541
-0.226206 1.517910 -0.385808
-0.226205 1.517907 -0.391079
-0.226203 1.517890 -0.396347
-0.226200 1.517874 -0.401615
-0.226207 1.517917 -0.406899
-0.226214 1.517966 -0.412185
-0.226214 1.517965 -0.417457
-0.226207 1.517915 -0.422716
-0.226197 1.517848 -0.427969
-0.226194 1.517829 -0.433236
-0.226200 1.517870 -0.438519
-0.226210 1.517936 -0.443811
-0.226225 1.518040 -0.449114
-0.226255 1.518241 -0.454447
-0.226288 1.518462 -0.459787
-0.226315 1.518642 -0.465117
-0.226326 1.518714 -0.470414
-0.226325 1.518712 -0.475689
-0.226317 1.518656 -0.480946
-0.226301 1.518549 -0.486187
-0.226274 1.518370 -0.491403
-0.226249 1.518203 -0.496623
-0.226234 1.518098 -0.501861
-0.226220 1.518005 -0.507103
-0.226201 1.517878 -0.512333
-0.226184 1.517767 -0.517567
-0.226171 1.517676 -0.522808
-0.226160 1.517606 -0.528055
-0.226142 1.517485 -0.533284
-0.226115 1.517302 -0.538489
-0.226080 1.517065 -0.543675
-0.226042 1.516808 -0.548851
-0.226003 1.516547 -0.554025
-0.225962 1.516274 -0.559191
-0.225912 1.515936 -0.564332
-0.225856 1.515560 -0.569457
-0.225800 1.515188 -0.574579
-0.225753 1.514872 -0.579722
-0.225718 1.514634 -0.584891
-0.225686 1.514421 -0.590069
-0.225662 1.514261 -0.595267
-0.225645 1.514146 -0.600481
-0.225631 1.514055 -0.605704
-0.225612 1.513927 -0.610911
-0.225593 1.513799 -0.616117
-0.225572 1.513655 -0.621316
-0.225546 1.513481 -0.626502
-0.225522 1.513319 -0.631691
-0.225505 1.513211 -0.636902
-0.198170 1.357915 0.631195
-0.198278 1.358654 0.626820
-0.198441 1.359772 0.622612
-0.198635 1.361104 0.618494
-0.198835 1.362469 0.614382
-0.199033 1.363828 0.610258
-0.199306 1.365699 0.606351
-0.199622 1.367863 0.602561
-0.199942 1.370056 0.598769
-0.200245 1.372136 0.594911
-0.200499 1.373874 0.590893
-0.200730 1.375454 0.586795
-0.201031 1.377518 0.582891
-0.201461 1.380468 0.579344
-0.201962 1.383896 0.575976
-0.202428 1.387090 0.572487
-0.202801 1.389646 0.568715
-0.203150 1.392037 0.564859
-0.203522 1.394587 0.561050
-0.203878 1.397028 0.557179
-0.204265 1.399683 0.553376
-0.204747 1.402985 0.549809
-0.205258 1.406485 0.546295
-0.205724 1.409676 0.542638
-0.206161 1.412674 0.538885
-0.206596 1.415651 0.535104
-0.207087 1.419014 0.531446
-0.207651 1.422880 0.527952
-0.208137 1.426214 0.524235
-0.208472 1.428507 0.520116
-0.208766 1.430523 0.515881
-0.209107 1.432859 0.511747
-0.209457 1.435255 0.507617
-0.209808 1.437661 0.503474
-0.210171 1.440149 0.499344
-0.210541 1.442685 0.495212
-0.210888 1.445061 0.491008
-0.211195 1.447164 0.486696
-0.211501 1.449263 0.482368
-0.211881 1.451863 0.478191
-0.212325 1.454906 0.474139
-0.212753 1.457844 0.470033
-0.213137 1.460472 0.465807
-0.213499 1.462953 0.461518
-0.213840 1.465292 0.457166
-0.214142 1.467356 0.452713
-0.214409 1.469191 0.448176
-0.214663 1.470928 0.443597
-0.214944 1.472857 0.439063
-0.215236 1.474854 0.434535
-0.215462 1.476408 0.429865
-0.215591 1.477289 0.424990
-0.215701 1.478042 0.420073
-0.215857 1.479112 0.415240
-0.216050 1.480434 0.410469
-0.216217 1.481578 0.405639
-0.216371 1.482631 0.400778
-0.216531 1.483730 0.395921
-0.216679 1.484744 0.391035
-0.216774 1.485391 0.386046
-0.216851 1.485925 0.381023
-0.216950 1.486604 0.376034
-0.217075 1.487457 0.371083
-0.217197 1.488292 0.366122
-0.217301 1.489009 0.361126
-0.217398 1.489671 0.356113
-0.217497 1.490352 0.351099
-0.217592 1.491000 0.346073
-0.217683 1.491623 0.341036
-0.217777 1.492269 0.336001
-0.217869 1.492901 0.330958
-0.217942 1.493400 0.325881
-0.217993 1.493748 0.320769
-0.218033 1.494022 0.315638
-0.218079 1.494335 0.310514
-0.218123 1.494635 0.305385
-0.218150 1.494821 0.300230
-0.218170 1.494958 0.295065
-0.218199 1.495156 0.289911
-0.218235 1.495406 0.284765
-0.218263 1.495600 0.279608
-0.218283 1.495732 0.274437
-0.218303 1.495871 0.269267
-0.218325 1.496025 0.264098
-0.218343 1.496148 0.258923
-0.218355 1.496231 0.253740
-0.218360 1.496262 0.248549
-0.218360 1.496264 0.243352
-0.218359 1.496256 0.238153
-0.218360 1.496259 0.232957
-0.218365 1.496299 0.227766
-0.218373 1.496352 0.222576
-0.218378 1.496383 0.217383
-0.218377 1.496380 0.212185
-0.218372 1.496342 0.206982
-0.218370 1.496331 0.201783
-0.218381 1.496403 0.196596
-0.218403 1.496555 0.191417
-0.218432 1.496755 0.186244
-0.218463 1.496970 0.181071
-0.218493 1.497174 0.175896
-0.218513 1.497311 0.170711
-0.218519 1.497354 0.165515
-0.218522 1.497373 0.160316
-0.218529 1.497423 0.155120
-0.218541 1.497504 0.149927
-0.218556 1.497604 0.144735
-0.218573 1.497721 0.139544
-0.218583 1.497793 0.134349
-0.218588 1.497827 0.129149
-0.218597 1.497888 0.123952
-0.218615 1.498012 0.118759
-0.218638 1.498170 0.113567
-0.218665 1.498350 0.108377
-0.218694 1.498552 0.103186
-0.218732 1.498809 0.097998
-0.218773 1.499089 0.092809
-0.218808 1.499335 0.087617
-0.218838 1.499540 0.082420
-0.218871 1.499761 0.077223
-0.218901 1.499970 0.072024
-0.218925 1.500132 0.066821
-0.218947 1.500284 0.061617
-0.218974 1.500469 0.056412
-0.219004 1.500675 0.051208
-0.219041 1.500929 0.046003
-0.219086 1.501238 0.040798
-0.219136 1.501580 0.035592
-0.219178 1.501865 0.030382
-0.219208 1.502075 0.025169
-0.219238 1.502278 0.019954
-0.219273 1.502518 0.014739
-0.219305 1.502736 0.009521
-0.219331 1.502915 0.004302
-0.219356 1.503087 -0.000918
-0.219382 1.503267 -0.006140
-0.219397 1.503367 -0.011362
-0.219398 1.503374 -0.016584
-0.219392 1.503334 -0.021805
-0.219376 1.503223 -0.027025
-0.219355 1.503082 -0.032243
-0.219352 1.503062 -0.037464
-0.219371 1.503189 -0.042688
-0.219394 1.503349 -0.047914
-0.219411 1.503462 -0.053140
-0.219416 1.503498 -0.058364
-0.219413 1.503476 -0.063585
-0.219398 1.503372 -0.068802
-0.219377 1.503233 -0.074017
-0.219366 1.503153 -0.079235
-0.219373 1.503202 -0.084458
-0.219400 1.503388 -0.089691
-0.219443 1.503684 -0.094931
-0.219491 1.504015 -0.100176
-0.219540 1.504346 -0.105424
-0.219590 1.504694 -0.110674
-0.219653 1.505120 -0.115934
-0.219728 1.505636 -0.121203
-0.219809 1.506193 -0.126480
-0.219887 1.506728 -0.131758
-0.219958 1.507214 -0.137036
-0.220021 1.507640 -0.142311
-0.220074 1.508009 -0.147584
-0.220120 1.508319 -0.152853
-0.220163 1.508618 -0.158124
-0.220210 1.508942 -0.163399
-0.220261 1.509288 -0.168679
-0.220314 1.509650 -0.173963
-0.220370 1.510032 -0.179252
-0.220433 1.510464 -0.184549
-0.220506 1.510964 -0.189859
-0.220589 1.511536 -0.195181
-0.220676 1.512132 -0.200510
-0.220754 1.512664 -0.205835
-0.220810 1.513050 -0.211143
-0.220847 1.513305 -0.216435
-0.220880 1.513533 -0.221724
-0.220919 1.513800 -0.227021
-0.220962 1.514090 -0.232324
-0.221004 1.514379 -0.237628
-0.221043 1.514647 -0.242931
-0.221076 1.514873 -0.248229
-0.221105 1.515074 -0.253525
-0.221144 1.515338 -0.258833
-0.221191 1.515663 -0.264152
-0.221246 1.516039 -0.269484
-0.221306 1.516448 -0.274824
-0.221350 1.516753 -0.280147
-0.221383 1.516974 -0.285457
-0.221414 1.517189 -0.290768
-0.221459 1.517499 -0.296098
-0.221509 1.517839 -0.301436
-0.221564 1.518220 -0.306785
-0.221610 1.518535 -0.312124
-0.221640 1.518740 -0.317441
-0.221655 1.518841 -0.322738
-0.221661 1.518883 -0.328022
-0.221659 1.518867 -0.333294
-0.221649 1.518799 -0.338555
-0.221637 1.518718 -0.343812
-0.221629 1.518659 -0.349074
-0.221621 1.518610 -0.354337
-0.221615 1.518563 -0.359601
-0.221613 1.518551 -0.364872
-0.221621 1.518605 -0.370160
-0.221630 1.518672 -0.375451
-0.221630 1.518669 -0.380726
-0.221627 1.518647 -0.385995
-0.221627 1.518645 -0.391270
-0.221625 1.518633 -0.396541
-0.221625 1.518637 -0.401817
-0.221635 1.518704 -0.407110
-0.221644 1.518768 -0.412402
-0.221645 1.518773 -0.417679
-0.221638 1.518721 -0.422940
-0.221627 1.518647 -0.428194
-0.221622 1.518613 -0.433459
-0.221626 1.518644 -0.438743
-0.221636 1.518709 -0.444037
-0.221649 1.518802 -0.449340
-0.221675 1.518975 -0.454667
-0.221706 1.519192 -0.460008
-0.221735 1.519391 -0.465346
-0.221754 1.519516 -0.470662
-0.221758 1.519544 -0.475949
-0.221752 1.519503 -0.481214
-0.221734 1.519378 -0.486452
-0.221704 1.519176 -0.491664
-0.221679 1.519003 -0.496884
-0.221665 1.518906 -0.502128
-0.221650 1.518804 -0.507370
-0.221631 1.518673 -0.512601
-0.221615 1.518564 -0.517839
-0.221601 1.518472 -0.523082
-0.221588 1.518378 -0.528324
-0.221568 1.518245 -0.533551
-0.221539 1.518045 -0.538753
-0.221505 1.517810 -0.543942
-0.221470 1.517572 -0.549128
-0.221434 1.517326 -0.554309
-0.221390 1.517024 -0.559468
-0.221340 1.516684 -0.564611
-0.221289 1.516335 -0.569748
-0.221241 1.516003 -0.574888
-0.221199 1.515717 -0.580045
-0.221166 1.515490 -0.585222
-0.221135 1.515275 -0.590402
-0.221108 1.515090 -0.595592
-0.221091 1.514978 -0.600811
-0.221080 1.514898 -0.606041
-0.221064 1.514792 -0.611260
-0.221045 1.514658 -0.616467
-0.221024 1.514513 -0.621668
-0.221000 1.514355 -0.626864
-0.220975 1.514182 -0.632051
-0.220959 1.514071 -0.637264
-0.194049 1.358413 0.631426
-0.194160 1.359191 0.627067
-0.194332 1.360395 0.622897
-0.194525 1.361749 0.618788
-0.194700 1.362973 0.614609
-0.194868 1.364147 0.610401
-0.195140 1.366053 0.606509
-0.195447 1.368202 0.602710
-0.195743 1.370273 0.598863
-0.196031 1.372290 0.594978
-0.196280 1.374033 0.590961
-0.196491 1.375514 0.586820
-0.196756 1.377365 0.582826
-0.197156 1.380163 0.579216
-0.197654 1.383654 0.575875
-0.198111 1.386851 0.572389
-0.198469 1.389354 0.568596
-0.198827 1.391863 0.564788
-0.199219 1.394605 0.561057
-0.199570 1.397064 0.557194
-0.199936 1.399630 0.553355
-0.200402 1.402886 0.549770
-0.200911 1.406451 0.546282
-0.201387 1.409783 0.542679
-0.201833 1.412907 0.538974
-0.202266 1.415935 0.535211
-0.202749 1.419321 0.531561
-0.203299 1.423170 0.528059
-0.203803 1.426695 0.524412
-0.204174 1.429296 0.520403
-0.204480 1.431435 0.516210
-0.204802 1.433690 0.512043
-0.205135 1.436021 0.507888
-0.205479 1.438430 0.503744
-0.205840 1.440956 0.499623
-0.206213 1.443571 0.495516
-0.206560 1.445999 0.491327
-0.206874 1.448198 0.487044
-0.207181 1.450344 0.482728
-0.207531 1.452798 0.478499
-0.207948 1.455712 0.474402
-0.208383 1.458757 0.470327
-0.208790 1.461608 0.466170
-0.209157 1.464174 0.461903
-0.209491 1.466515 0.457547
-0.209783 1.468562 0.453085
-0.210051 1.470438 0.448556
-0.210297 1.472158 0.443968
-0.210567 1.474049 0.439418
-0.210847 1.476007 0.434875
-0.211071 1.477578 0.430206
-0.211197 1.478461 0.425327
-0.211297 1.479158 0.420390
-0.211444 1.480184 0.415540
-0.211628 1.481478 0.410758
-0.211785 1.482576 0.405913
-0.211927 1.483571 0.401032
-0.212076 1.484614 0.396157
-0.212217 1.485597 0.391259
-0.212310 1.486247 0.386268
-0.212378 1.486728 0.381229
-0.212468 1.487354 0.376224
-0.212590 1.488212 0.371272
-0.212707 1.489031 0.366304
-0.212802 1.489693 0.361292
-0.212891 1.490318 0.356267
-0.212987 1.490990 0.351249
-0.213077 1.491622 0.346217
-0.213161 1.492207 0.341170
-0.213247 1.492808 0.336122
-0.213332 1.493403 0.331069
-0.213400 1.493883 0.325986
-0.213448 1.494214 0.320869
-0.213484 1.494467 0.315732
-0.213525 1.494755 0.310601
-0.213567 1.495048 0.305469
-0.213594 1.495237 0.300314
-0.213612 1.495367 0.295146
-0.213640 1.495557 0.289989
-0.213674 1.495799 0.284840
-0.213702 1.495994 0.279681
-0.213720 1.496120 0.274508
-0.213739 1.496255 0.269336
-0.213762 1.496411 0.264166
-0.213778 1.496529 0.258989
-0.213789 1.496605 0.253804
-0.213794 1.496640 0.248611
-0.213796 1.496650 0.243414
-0.213795 1.496647 0.238215
-0.213797 1.496658 0.233019
-0.213803 1.496704 0.227827
-0.213809 1.496743 0.222634
-0.213811 1.496758 0.217438
-0.213811 1.496758 0.212239
-0.213809 1.496741 0.207038
-0.213804 1.496705 0.201834
-0.213809 1.496746 0.196641
-0.213832 1.496902 0.191462
-0.213867 1.497148 0.186293
-0.213901 1.497384 0.181121
-0.213928 1.497577 0.175943
-0.213947 1.497706 0.170756
-0.213956 1.497775 0.165561
-0.213962 1.497815 0.160363
-0.213971 1.497875 0.155167
-0.213983 1.497963 0.149973
-0.213999 1.498071 0.144781
-0.214014 1.498180 0.139587
-0.214024 1.498250 0.134390
-0.214031 1.498294 0.129189
-0.214040 1.498358 0.123991
-0.214055 1.498466 0.118795
-0.214075 1.498603 0.113600
-0.214096 1.498753 0.108406
-0.214120 1.498923 0.103212
-0.214153 1.499151 0.098020
-0.214194 1.499439 0.092831
-0.214234 1.499715 0.087639
-0.214267 1.499949 0.082443
-0.214302 1.500192 0.077245
-0.214333 1.500412 0.072045
-0.214359 1.500591 0.066841
-0.214385 1.500773 0.061637
-0.214421 1.501027 0.056433
-0.214457 1.501279 0.051228
-0.214491 1.501517 0.046021
-0.214534 1.501817 0.040814
-0.214583 1.502161 0.035606
-0.214620 1.502422 0.030393
-0.214649 1.502623 0.025178
-0.214679 1.502833 0.019962
-0.214714 1.503077 0.014744
-0.214743 1.503282 0.009524
-0.214764 1.503428 0.004303
-0.214784 1.503569 -0.000919
-0.214808 1.503736 -0.006142
-0.214824 1.503847 -0.011366
-0.214824 1.503850 -0.016589
-0.214819 1.503815 -0.021812
-0.214802 1.503697 -0.027034
-0.214783 1.503560 -0.032254
-0.214780 1.503541 -0.037476
-0.214797 1.503661 -0.042702
-0.214819 1.503810 -0.047929
-0.214834 1.503920 -0.053156
-0.214839 1.503956 -0.058381
-0.214836 1.503934 -0.063604
-0.214823 1.503838 -0.068824
-0.214806 1.503722 -0.074042
-0.214797 1.503659 -0.079261
-0.214805 1.503717 -0.084487
-0.214834 1.503915 -0.089722
-0.214878 1.504224 -0.094965
-0.214927 1.504566 -0.100213
-0.214972 1.504884 -0.105461
-0.215020 1.505222 -0.110713
-0.215081 1.505644 -0.115974
-0.215155 1.506163 -0.121245
-0.215236 1.506731 -0.126525
-0.215314 1.507277 -0.131806
-0.215385 1.507774 -0.137087
-0.215447 1.508209 -0.142365
-0.215501 1.508586 -0.147640
-0.215546 1.508903 -0.152912
-0.215591 1.509217 -0.158186
-0.215640 1.509559 -0.163465
-0.215693 1.509929 -0.168750
-0.215747 1.510312 -0.174039
-0.215803 1.510700 -0.179331
-0.215865 1.511132 -0.184631
-0.215939 1.511652 -0.189945
-0.216022 1.512236 -0.195271
-0.216105 1.512819 -0.200601
-0.216180 1.513342 -0.205927
-0.216237 1.513741 -0.211239
-0.216272 1.513986 -0.216532
-0.216304 1.514208 -0.221823
-0.216338 1.514446 -0.227118
-0.216376 1.514710 -0.232419
-0.216415 1.514989 -0.237724
-0.216454 1.515262 -0.243030
-0.216487 1.515491 -0.248331
-0.216515 1.515689 -0.253628
-0.216553 1.515954 -0.258938
-0.216601 1.516290 -0.264262
-0.216660 1.516699 -0.269601
-0.216721 1.517127 -0.274947
-0.216771 1.517475 -0.280281
-0.216803 1.517700 -0.285594
-0.216836 1.517936 -0.290911
-0.216882 1.518257 -0.296246
-0.216935 1.518623 -0.301592
-0.216987 1.518991 -0.306941
-0.217030 1.519288 -0.312278
-0.217052 1.519446 -0.317589
-0.217061 1.519506 -0.322879
-0.217064 1.519526 -0.328161
-0.217059 1.519496 -0.333432
-0.217049 1.519425 -0.338694
-0.217038 1.519346 -0.343954
-0.217027 1.519272 -0.349214
-0.217019 1.519212 -0.354477
-0.217014 1.519177 -0.359746
-0.217016 1.519191 -0.365026
-0.217026 1.519263 -0.370321
-0.217032 1.519305 -0.375608
-0.217031 1.519297 -0.380883
-0.217027 1.519270 -0.386153
-0.217025 1.519259 -0.391428
-0.217024 1.519251 -0.396703
-0.217028 1.519276 -0.401986
-0.217038 1.519349 -0.407283
-0.217047 1.519412 -0.412577
-0.217048 1.519418 -0.417857
-0.217041 1.519368 -0.423120
-0.217027 1.519267 -0.428369
-0.217018 1.519206 -0.433629
