# This PCD file was generated using the MATLAB® pcwrite function
# from Computer Vision System Toolbox®.
# .PCD v.7 - Point Cloud Data file format
VERSION .7
FIELDS x y z
SIZE 4 4 4
TYPE F F F
COUNT 1 1 1
WIDTH 1677
HEIGHT 1
VIEWPOINT 0 0 0 1 0 0 0
POINTS 1677
DATA ascii
-0.879246 1.291526 -0.481301
-0.879140 1.291370 -0.485734
-0.879668 1.292145 -0.490518
-0.880330 1.293118 -0.495383
-0.880629 1.293557 -0.500049
-0.880647 1.293584 -0.504557
-0.880681 1.293633 -0.509074
-0.880695 1.293655 -0.513581
-0.880687 1.293643 -0.518074
-0.880619 1.293544 -0.522532
-0.880470 1.293325 -0.526940
-0.879993 1.292624 -0.531149
-0.879027 1.291204 -0.535056
-0.877823 1.289436 -0.538806
-0.876994 1.288218 -0.542777
-0.922086 1.360630 0.633092
-0.922056 1.360586 0.628341
-0.921976 1.360468 0.623556
-0.921867 1.360308 0.618753
-0.921746 1.360129 0.613942
-0.921601 1.359915 0.609117
-0.921446 1.359687 0.604287
-0.921328 1.359512 0.599482
-0.921256 1.359407 0.594709
-0.921210 1.359338 0.589953
-0.921103 1.359180 0.585159
-0.920872 1.358840 0.580288
-0.920595 1.358431 0.575390
-0.920361 1.358086 0.570522
-0.920154 1.357780 0.565672
-0.919899 1.357404 0.560796
-0.919553 1.356894 0.555867
-0.919238 1.356429 0.550960
-0.918952 1.356007 0.546074
-0.918754 1.355715 0.541242
-0.918642 1.355549 0.536463
-0.918610 1.355502 0.531731
-0.918669 1.355589 0.527052
-0.918772 1.355741 0.522397
-0.918821 1.355814 0.517711
-0.918813 1.355802 0.512993
-0.918828 1.355824 0.508287
-0.918973 1.356038 0.503652
-0.919144 1.356290 0.499030
-0.919166 1.356323 0.494326
-0.919027 1.356117 0.489536
-0.918908 1.355941 0.484758
-0.918849 1.355854 0.480012
-0.918812 1.355800 0.475279
-0.918792 1.355770 0.470555
-0.918861 1.355872 0.465876
-0.918968 1.356030 0.461215
-0.919090 1.356210 0.456561
-0.919270 1.356475 0.451934
-0.919537 1.356870 0.447347
-0.919736 1.357164 0.442725
-0.919803 1.357263 0.438038
-0.919751 1.357186 0.433295
-0.919583 1.356938 0.428498
-0.919344 1.356585 0.423669
-0.919121 1.356256 0.418851
-0.918929 1.355972 0.414048
-0.918734 1.355685 0.409247
-0.918454 1.355272 0.404410
-0.918088 1.354731 0.399538
-0.917776 1.354271 0.394694
-0.917633 1.354061 0.389924
-0.917609 1.354025 0.385206
-0.917582 1.353985 0.380487
-0.917428 1.353758 0.375716
-0.917129 1.353317 0.370888
-0.916857 1.352915 0.366074
-0.916635 1.352587 0.361283
-0.916427 1.352280 0.356499
-0.916240 1.352005 0.351725
-0.916149 1.351871 0.346990
-0.916043 1.351714 0.342250
-0.915788 1.351337 0.337456
-0.915370 1.350720 0.332605
-0.914898 1.350025 0.327740
-0.914465 1.349386 0.322893
-0.914109 1.348860 0.318077
-0.913763 1.348349 0.313269
-0.913466 1.347912 0.308480
-0.913245 1.347585 0.303720
-0.913067 1.347323 0.298976
-0.912939 1.347134 0.294250
-0.912863 1.347021 0.289542
-0.912727 1.346821 0.284816
-0.912471 1.346443 0.280055
-0.912120 1.345924 0.275267
-0.911860 1.345541 0.270510
-0.911836 1.345506 0.265825
-0.911969 1.345702 0.261185
-0.912019 1.345776 0.256520
-0.911933 1.345650 0.251817
-0.911763 1.345399 0.247092
-0.911557 1.345095 0.242359
-0.911338 1.344771 0.237625
-0.911198 1.344564 0.232914
-0.911196 1.344561 0.228238
-0.911297 1.344710 0.223588
-0.911458 1.344949 0.218951
-0.911726 1.345344 0.214338
-0.912063 1.345842 0.209738
-0.912359 1.346279 0.205125
-0.912552 1.346563 0.200486
-0.912734 1.346831 0.195843
-0.912897 1.347072 0.191194
-0.912915 1.347099 0.186514
-0.912738 1.346836 0.181795
-0.912505 1.346493 0.177067
-0.912355 1.346273 0.172357
-0.912341 1.346251 0.167673
-0.912353 1.346268 0.162994
-0.912303 1.346196 0.158305
-0.912284 1.346167 0.153621
-0.912377 1.346305 0.148956
-0.912540 1.346545 0.144300
-0.912640 1.346692 0.139634
-0.912624 1.346670 0.134949
-0.912561 1.346577 0.130258
-0.912541 1.346547 0.125573
-0.912596 1.346628 0.120898
-0.912685 1.346759 0.116227
-0.912705 1.346789 0.111547
-0.912585 1.346612 0.106850
-0.912411 1.346355 0.102149
-0.912286 1.346170 0.097454
-0.912198 1.346040 0.092764
-0.912091 1.345882 0.088074
-0.911905 1.345608 0.083377
-0.911702 1.345309 0.078681
-0.911666 1.345256 0.074001
-0.911858 1.345539 0.069338
-0.912091 1.345883 0.064676
-0.912236 1.346096 0.060006
-0.912297 1.346187 0.055329
-0.912339 1.346249 0.050651
-0.912327 1.346231 0.045969
-0.912221 1.346074 0.041284
-0.912086 1.345875 0.036598
-0.912093 1.345885 0.031919
-0.912254 1.346123 0.027244
-0.912484 1.346462 0.022569
-0.912728 1.346823 0.017892
-0.912942 1.347138 0.013212
-0.913116 1.347395 0.008530
-0.913306 1.347675 0.003846
-0.913503 1.347966 -0.000840
-0.913621 1.348141 -0.005528
-0.913668 1.348210 -0.010216
-0.913722 1.348289 -0.014904
-0.913851 1.348480 -0.019595
-0.914066 1.348797 -0.024289
-0.914372 1.349248 -0.028989
-0.914767 1.349830 -0.033695
-0.915177 1.350436 -0.038405
-0.915465 1.350861 -0.043114
-0.915606 1.351068 -0.047819
-0.915663 1.351154 -0.052520
-0.915693 1.351197 -0.057219
-0.915727 1.351248 -0.061920
-0.915888 1.351486 -0.066630
-0.916194 1.351936 -0.071353
-0.916521 1.352420 -0.076081
-0.916773 1.352792 -0.080805
-0.916950 1.353053 -0.085525
-0.917073 1.353234 -0.090242
-0.917172 1.353380 -0.094957
-0.917229 1.353464 -0.099669
-0.917222 1.353454 -0.104374
-0.917181 1.353393 -0.109075
-0.917144 1.353339 -0.113777
-0.917135 1.353325 -0.118481
-0.917136 1.353327 -0.123187
-0.917112 1.353292 -0.127889
-0.917060 1.353215 -0.132587
-0.917015 1.353148 -0.137285
-0.916986 1.353105 -0.141985
-0.916942 1.353040 -0.146683
-0.916851 1.352906 -0.151373
-0.916737 1.352737 -0.156057
-0.916704 1.352689 -0.160755
-0.916783 1.352806 -0.165472
-0.916887 1.352959 -0.170195
-0.916893 1.352968 -0.174901
-0.916748 1.352754 -0.179577
-0.916447 1.352309 -0.184219
-0.916062 1.351742 -0.188842
-0.915710 1.351222 -0.193468
-0.915352 1.350695 -0.198089
-0.914974 1.350137 -0.202701
-0.914638 1.349640 -0.207319
-0.914315 1.349163 -0.211937
-0.913965 1.348648 -0.216545
-0.913720 1.348286 -0.221175
-0.913586 1.348088 -0.225830
-0.913403 1.347819 -0.230471
-0.913082 1.347344 -0.235075
-0.912615 1.346655 -0.239637
-0.912024 1.345783 -0.244161
-0.911340 1.344775 -0.248654
-0.910501 1.343536 -0.253096
-0.909546 1.342127 -0.257497
-0.908684 1.340855 -0.261915
-0.908053 1.339924 -0.266392
-0.907548 1.339179 -0.270901
-0.907083 1.338493 -0.275416
-0.906685 1.337905 -0.279947
-0.906404 1.337491 -0.284511
-0.906185 1.337168 -0.289091
-0.905943 1.336810 -0.293662
-0.905649 1.336377 -0.298213
-0.905354 1.335942 -0.302761
-0.905018 1.335446 -0.307292
-0.904579 1.334797 -0.311784
-0.904061 1.334034 -0.316244
-0.903490 1.333191 -0.320680
-0.902693 1.332015 -0.325028
-0.901743 1.330613 -0.329313
-0.900967 1.329468 -0.333652
-0.900650 1.329000 -0.338155
-0.899989 1.328025 -0.342525
-0.899693 1.327588 -0.347028
-0.899081 1.326684 -0.351405
-0.898193 1.325374 -0.355666
-0.891826 1.315980 -0.357721
-0.884049 1.304504 -0.359137
-0.882914 1.302829 -0.363206
-0.882358 1.302009 -0.367504
-0.882275 1.301886 -0.371996
-0.882169 1.301730 -0.376478
-0.881918 1.301359 -0.380895
-0.881667 1.300989 -0.385311
-0.881562 1.300833 -0.389787
-0.881529 1.300786 -0.394296
-0.881483 1.300717 -0.398798
-0.881416 1.300619 -0.403290
-0.881254 1.300380 -0.407737
-0.880836 1.299762 -0.412062
-0.880062 1.298620 -0.416216
-0.879034 1.297103 -0.420240
-0.877830 1.295327 -0.424168
-0.866672 1.278861 -0.423223
-0.861992 1.271957 -0.425360
-0.862013 1.271987 -0.429793
-0.862456 1.272641 -0.434439
-0.862950 1.273369 -0.439115
-0.864097 1.275063 -0.444133
-0.865831 1.277621 -0.449466
-0.868345 1.281331 -0.455226
-0.879256 1.297431 -0.465457
-0.881031 1.300050 -0.470917
-0.878993 1.297043 -0.474338
-0.876637 1.293567 -0.477564
-0.875172 1.291405 -0.481256
-0.875017 1.291177 -0.485661
-0.875473 1.291849 -0.490405
-0.876125 1.292811 -0.495266
-0.876414 1.293237 -0.499925
-0.876432 1.293263 -0.504432
-0.876446 1.293284 -0.508937
-0.876454 1.293296 -0.513439
-0.876432 1.293264 -0.517922
-0.876319 1.293097 -0.522352
-0.876090 1.292759 -0.526710
-0.875557 1.291973 -0.530882
-0.874569 1.290514 -0.534770
-0.873346 1.288710 -0.538503
-0.872522 1.287494 -0.542471
-0.917297 1.359766 0.632690
-0.917249 1.359694 0.627929
-0.917151 1.359550 0.623135
-0.917046 1.359393 0.618336
-0.916933 1.359226 0.613534
-0.916793 1.359019 0.608716
-0.916646 1.358801 0.603894
-0.916537 1.358638 0.599097
-0.916479 1.358552 0.594336
-0.916441 1.358497 0.589588
-0.916341 1.358349 0.584801
-0.916113 1.358011 0.579933
-0.915841 1.357607 0.575041
-0.915606 1.357260 0.570174
-0.915403 1.356959 0.565330
-0.915144 1.356574 0.560453
-0.914826 1.356102 0.555543
-0.914514 1.355641 0.550640
-0.914240 1.355233 0.545762
-0.914049 1.354951 0.540938
-0.913948 1.354801 0.536167
-0.913921 1.354761 0.531441
-0.913969 1.354833 0.526758
-0.914078 1.354994 0.522110
-0.914153 1.355106 0.517441
-0.914182 1.355148 0.512745
-0.914228 1.355216 0.508059
-0.914373 1.355431 0.503427
-0.914526 1.355657 0.498797
-0.914532 1.355667 0.494087
-0.914398 1.355468 0.489302
-0.914292 1.355312 0.484533
-0.914237 1.355229 0.479791
-0.914199 1.355173 0.475059
-0.914190 1.355160 0.470343
-0.914271 1.355280 0.465672
-0.914380 1.355442 0.461015
-0.914499 1.355619 0.456362
-0.914683 1.355891 0.451739
-0.914934 1.356263 0.447147
-0.915127 1.356549 0.442525
-0.915206 1.356665 0.437846
-0.915187 1.356637 0.433120
-0.915029 1.356404 0.428329
-0.914777 1.356030 0.423496
-0.914567 1.355719 0.418685
-0.914419 1.355500 0.413904
-0.914244 1.355240 0.409113
-0.913975 1.354842 0.404282
-0.913628 1.354327 0.399419
-0.913313 1.353861 0.394574
-0.913143 1.353608 0.389794
-0.913103 1.353549 0.385071
-0.913071 1.353501 0.380351
-0.912915 1.353270 0.375581
-0.912623 1.352837 0.370757
-0.912347 1.352429 0.365943
-0.912134 1.352112 0.361156
-0.911936 1.351819 0.356377
-0.911754 1.351548 0.351606
-0.911661 1.351411 0.346872
-0.911556 1.351255 0.342134
-0.911316 1.350899 0.337346
-0.910918 1.350309 0.332504
-0.910459 1.349629 0.327644
-0.910059 1.349036 0.322809
-0.909721 1.348536 0.318001
-0.909385 1.348037 0.313196
-0.909098 1.347612 0.308412
-0.908883 1.347293 0.303654
-0.908714 1.347042 0.298914
-0.908596 1.346867 0.294192
-0.908516 1.346750 0.289484
-0.908384 1.346553 0.284760
-0.908144 1.346198 0.280004
-0.907808 1.345699 0.275221
-0.907564 1.345338 0.270469
-0.907546 1.345312 0.265787
-0.907681 1.345511 0.261148
-0.907735 1.345592 0.256485
-0.907658 1.345477 0.251785
-0.907493 1.345233 0.247062
-0.907295 1.344938 0.242331
-0.907083 1.344625 0.237599
-0.906950 1.344428 0.232890
-0.906951 1.344429 0.228216
-0.907050 1.344576 0.223566
-0.907205 1.344806 0.218928
-0.907464 1.345190 0.214313
-0.907800 1.345687 0.209713
-0.908101 1.346133 0.205103
-0.908298 1.346426 0.200466
-0.908478 1.346693 0.195823
-0.908634 1.346925 0.191173
-0.908650 1.346948 0.186493
-0.908475 1.346689 0.181775
-0.908246 1.346348 0.177048
-0.908098 1.346130 0.172339
-0.908078 1.346100 0.167654
-0.908080 1.346103 0.162974
-0.908025 1.346022 0.158285
-0.908001 1.345986 0.153600
-0.908086 1.346111 0.148934
-0.908232 1.346328 0.144277
-0.908323 1.346463 0.139610
-0.908320 1.346459 0.134928
-0.908274 1.346390 0.130240
-0.908254 1.346360 0.125555
-0.908302 1.346432 0.120880
-0.908378 1.346544 0.116209
-0.908381 1.346549 0.111527
-0.908264 1.346376 0.106831
-0.908103 1.346136 0.102132
-0.907983 1.345960 0.097439
-0.907894 1.345827 0.092750
-0.907732 1.345587 0.088055
-0.907485 1.345221 0.083353
-0.907299 1.344944 0.078660
-0.907330 1.344991 0.073986
-0.907551 1.345319 0.069326
-0.907777 1.345654 0.064665
-0.907896 1.345830 0.059994
-0.907940 1.345896 0.055317
-0.907982 1.345958 0.050640
-0.907973 1.345944 0.045959
-0.907866 1.345786 0.041275
-0.907722 1.345572 0.036590
-0.907686 1.345518 0.031910
-0.907814 1.345709 0.027235
-0.908058 1.346070 0.022562
-0.908333 1.346478 0.017888
-0.908584 1.346850 0.013209
-0.908788 1.347153 0.008528
-0.908968 1.347418 0.003845
-0.909140 1.347674 -0.000840
-0.909258 1.347850 -0.005527
-0.909311 1.347927 -0.010214
-0.909370 1.348015 -0.014901
-0.909518 1.348234 -0.019592
-0.909732 1.348552 -0.024285
-0.910020 1.348978 -0.028983
-0.910384 1.349517 -0.033687
-0.910771 1.350092 -0.038396
-0.911069 1.350533 -0.043104
-0.911243 1.350792 -0.047809
-0.911314 1.350896 -0.052510
-0.911347 1.350945 -0.057209
-0.911387 1.351005 -0.061909
-0.911554 1.351252 -0.066618
-0.911874 1.351727 -0.071342
-0.912231 1.352257 -0.076071
-0.912507 1.352665 -0.080797
-0.912687 1.352932 -0.085518
-0.912790 1.353085 -0.090232
-0.912862 1.353191 -0.094944
-0.912905 1.353255 -0.099654
-0.912891 1.353234 -0.104357
-0.912855 1.353181 -0.109058
-0.912842 1.353162 -0.113762
-0.912853 1.353177 -0.118468
-0.912847 1.353169 -0.123172
-0.912805 1.353107 -0.127871
-0.912746 1.353019 -0.132567
-0.912695 1.352943 -0.137264
-0.912658 1.352890 -0.141963
-0.912608 1.352815 -0.146659
-0.912510 1.352669 -0.151346
-0.912400 1.352507 -0.156030
-0.912400 1.352506 -0.160733
-0.912517 1.352680 -0.165457
-0.912630 1.352847 -0.170181
-0.912601 1.352805 -0.174880
-0.912407 1.352517 -0.179545
-0.912078 1.352030 -0.184181
-0.911699 1.351467 -0.188804
-0.911361 1.350966 -0.193431
-0.911017 1.350457 -0.198054
-0.910649 1.349910 -0.202667
-0.910314 1.349414 -0.207285
-0.909989 1.348932 -0.211901
-0.909645 1.348423 -0.216509
-0.909399 1.348058 -0.221138
-0.909256 1.347845 -0.225789
-0.909067 1.347566 -0.230428
-0.908744 1.347087 -0.235030
-0.908277 1.346394 -0.239590
-0.907678 1.345507 -0.244111
-0.906979 1.344470 -0.248597
-0.906121 1.343198 -0.253033
-0.905158 1.341772 -0.257429
-0.904280 1.340470 -0.261840
-0.903647 1.339531 -0.266314
-0.903127 1.338761 -0.270816
-0.902655 1.338061 -0.275327
-0.902256 1.337469 -0.279855
-0.901982 1.337063 -0.284419
-0.901766 1.336744 -0.288999
-0.901523 1.336383 -0.293568
-0.901224 1.335939 -0.298116
-0.900919 1.335488 -0.302658
-0.900564 1.334961 -0.307181
-0.900101 1.334276 -0.311662
-0.899572 1.333491 -0.316115
-0.898992 1.332631 -0.320545
-0.898184 1.331433 -0.324886
-0.897182 1.329948 -0.329148
-0.896284 1.328617 -0.333438
-0.894871 1.326522 -0.337525
-0.893174 1.324007 -0.341489
-0.892497 1.323003 -0.345830
-0.891571 1.321630 -0.350066
-0.890153 1.319529 -0.354097
-0.879834 1.304232 -0.354527
-0.878788 1.302681 -0.358635
-0.878062 1.301606 -0.362865
-0.877684 1.301045 -0.367232
-0.877492 1.300761 -0.371675
-0.877323 1.300510 -0.376125
-0.877169 1.300281 -0.380580
-0.877035 1.300083 -0.385042
-0.876961 1.299973 -0.389529
-0.876859 1.299822 -0.394004
-0.876636 1.299491 -0.398422
-0.876240 1.298905 -0.402758
-0.875751 1.298180 -0.407047
-0.874779 1.296738 -0.411104
-0.872734 1.293707 -0.414641
-0.868061 1.286780 -0.416895
-0.858095 1.272007 -0.416532
-0.853731 1.265538 -0.418814
-0.854505 1.266686 -0.423598
-0.855452 1.268089 -0.428476
-0.856205 1.269205 -0.433266
-0.857435 1.271029 -0.438308
-0.859516 1.274113 -0.443802
-0.862536 1.278590 -0.449807
-0.874691 1.296609 -0.460654
-0.879008 1.303007 -0.467458
-0.877465 1.300720 -0.471160
-0.875147 1.297285 -0.474426
-0.872856 1.293888 -0.477683
-0.871674 1.292136 -0.481529
-0.871443 1.291793 -0.485892
-0.871807 1.292333 -0.490589
-0.872402 1.293215 -0.495420
-0.872655 1.293590 -0.500062
-0.872654 1.293589 -0.504559
-0.872634 1.293560 -0.509045
-0.872612 1.293526 -0.513530
-0.872549 1.293433 -0.517990
-0.872360 1.293152 -0.522374
-0.872014 1.292640 -0.526662
-0.871360 1.291671 -0.530758
-0.870268 1.290052 -0.534578
-0.868939 1.288082 -0.538240
-0.868027 1.286730 -0.542150
-0.912373 1.358692 0.632190
-0.912306 1.358592 0.627420
-0.912196 1.358428 0.622621
-0.912089 1.358269 0.617825
-0.911992 1.358125 0.613037
-0.911869 1.357941 0.608233
-0.911736 1.357743 0.603423
-0.911636 1.357594 0.598637
-0.911583 1.357514 0.593882
-0.911548 1.357462 0.589139
-0.911448 1.357314 0.584355
-0.911216 1.356968 0.579488
-0.910938 1.356554 0.574594
-0.910696 1.356194 0.569727
-0.910487 1.355883 0.564882
-0.910240 1.355515 0.560015
-0.909930 1.355053 0.555113
-0.909626 1.354601 0.550218
-0.909357 1.354200 0.545346
-0.909168 1.353919 0.540526
-0.909081 1.353788 0.535766
-0.909066 1.353767 0.531051
-0.909136 1.353871 0.526384
-0.909247 1.354037 0.521741
-0.909314 1.354136 0.517071
-0.909346 1.354183 0.512380
-0.909409 1.354278 0.507707
-0.909545 1.354480 0.503074
-0.909661 1.354653 0.498428
-0.909649 1.354635 0.493711
-0.909521 1.354444 0.488932
-0.909408 1.354276 0.484163
-0.909353 1.354194 0.479425
-0.909341 1.354176 0.474710
-0.909366 1.354214 0.470014
-0.909463 1.354358 0.465355
-0.909578 1.354530 0.460705
-0.909702 1.354714 0.456057
-0.909881 1.354980 0.451436
-0.910127 1.355346 0.446845
-0.910308 1.355616 0.442221
-0.910387 1.355734 0.437545
-0.910377 1.355719 0.432826
-0.910231 1.355502 0.428044
-0.910000 1.355157 0.423223
-0.909823 1.354894 0.418430
-0.909714 1.354731 0.413669
-0.909566 1.354512 0.408893
-0.909316 1.354139 0.404072
-0.908985 1.353646 0.399218
-0.908684 1.353198 0.394381
-0.908531 1.352969 0.389610
-0.908494 1.352915 0.384890
-0.908459 1.352862 0.380172
-0.908302 1.352629 0.375403
-0.908010 1.352194 0.370581
-0.907727 1.351772 0.365765
-0.907513 1.351454 0.360980
-0.907321 1.351168 0.356206
-0.907132 1.350887 0.351434
-0.907025 1.350727 0.346696
-0.906930 1.350585 0.341964
-0.906686 1.350223 0.337177
-0.906302 1.349650 0.332342
-0.905897 1.349047 0.327503
-0.905529 1.348500 0.322681
-0.905211 1.348026 0.317881
-0.904887 1.347543 0.313081
-0.904598 1.347113 0.308298
-0.904374 1.346779 0.303538
-0.904215 1.346543 0.298803
-0.904104 1.346377 0.294085
-0.904026 1.346261 0.289379
-0.903885 1.346051 0.284653
-0.903656 1.345710 0.279902
-0.903340 1.345240 0.275127
-0.903114 1.344903 0.270382
-0.903101 1.344884 0.265702
-0.903232 1.345078 0.261064
-0.903288 1.345162 0.256403
-0.903218 1.345058 0.251706
-0.903059 1.344820 0.246986
-0.902867 1.344535 0.242258
-0.902671 1.344243 0.237532
-0.902551 1.344064 0.232827
-0.902553 1.344068 0.228154
-0.902648 1.344209 0.223505
-0.902794 1.344427 0.218866
-0.903040 1.344793 0.214250
-0.903364 1.345275 0.209649
-0.903666 1.345725 0.205040
-0.903869 1.346027 0.200406
-0.904048 1.346294 0.195765
-0.904196 1.346514 0.191115
-0.904205 1.346528 0.186435
-0.904037 1.346277 0.181719
-0.903813 1.345944 0.176995
-0.903662 1.345719 0.172286
-0.903634 1.345677 0.167602
-0.903626 1.345666 0.162922
-0.903568 1.345580 0.158233
-0.903543 1.345541 0.153550
-0.903627 1.345666 0.148885
-0.903770 1.345879 0.144229
-0.903864 1.346019 0.139564
-0.903873 1.346034 0.134885
-0.903841 1.345986 0.130200
-0.903822 1.345957 0.125518
-0.903854 1.346005 0.120842
-0.903909 1.346088 0.116169
-0.903895 1.346066 0.111487
-0.903773 1.345885 0.106793
-0.903621 1.345659 0.102096
-0.903504 1.345483 0.097404
-0.903406 1.345338 0.092716
-0.903223 1.345065 0.088020
-0.902965 1.344681 0.083320
-0.902806 1.344445 0.078631
-0.902874 1.344546 0.073962
-0.903099 1.344881 0.069304
-0.903312 1.345197 0.064643
-0.903418 1.345355 0.059973
-0.903456 1.345412 0.055297
-0.903495 1.345471 0.050621
-0.903468 1.345430 0.045942
-0.903337 1.345235 0.041258
-0.903188 1.345014 0.036574
-0.903159 1.344970 0.031897
-0.903285 1.345158 0.027224
-0.903527 1.345518 0.022553
-0.903804 1.345931 0.017880
-0.904059 1.346310 0.013204
-0.904266 1.346618 0.008525
-0.904439 1.346876 0.003844
-0.904607 1.347127 -0.000840
-0.904729 1.347307 -0.005524
-0.904782 1.347387 -0.010210
-0.904853 1.347493 -0.014896
-0.905010 1.347726 -0.019584
-0.905228 1.348051 -0.024276
-0.905505 1.348463 -0.028972
-0.905846 1.348972 -0.033673
-0.906219 1.349526 -0.038379
-0.906525 1.349983 -0.043086
-0.906705 1.350251 -0.047790
-0.906779 1.350361 -0.052489
-0.906826 1.350430 -0.057187
-0.906890 1.350526 -0.061887
-0.907058 1.350777 -0.066595
-0.907377 1.351251 -0.071316
-0.907742 1.351796 -0.076045
-0.908014 1.352200 -0.080770
-0.908194 1.352468 -0.085488
-0.908303 1.352630 -0.090202
-0.908370 1.352729 -0.094912
-0.908406 1.352783 -0.099619
-0.908384 1.352751 -0.104320
-0.908350 1.352700 -0.109020
-0.908343 1.352690 -0.113722
-0.908362 1.352719 -0.118428
-0.908358 1.352712 -0.123131
-0.908314 1.352647 -0.127828
-0.908254 1.352557 -0.132522
-0.908197 1.352472 -0.137216
-0.908162 1.352421 -0.141914
-0.908130 1.352373 -0.146611
-0.908047 1.352249 -0.151299
-0.907945 1.352097 -0.155983
-0.907932 1.352078 -0.160682
-0.908023 1.352214 -0.165400
-0.908096 1.352322 -0.170115
-0.908020 1.352209 -0.174803
-0.907796 1.351876 -0.179460
-0.907472 1.351394 -0.184095
-0.907128 1.350880 -0.188722
-0.906829 1.350436 -0.193355
-0.906525 1.349983 -0.197984
-0.906175 1.349462 -0.202600
-0.905846 1.348971 -0.207216
-0.905538 1.348513 -0.211835
-0.905221 1.348041 -0.216448
-0.904982 1.347685 -0.221077
-0.904821 1.347445 -0.225722
-0.904605 1.347124 -0.230352
-0.904264 1.346616 -0.234948
-0.903792 1.345913 -0.239505
-0.903168 1.344983 -0.244016
-0.902420 1.343869 -0.248486
-0.901530 1.342545 -0.252909
-0.900550 1.341085 -0.257297
-0.899656 1.339754 -0.261700
-0.899010 1.338791 -0.266167
-0.898485 1.338010 -0.270664
-0.898009 1.337300 -0.275170
-0.897611 1.336708 -0.279696
-0.897343 1.336309 -0.284259
-0.897133 1.335997 -0.288838
-0.896890 1.335634 -0.293403
-0.896573 1.335162 -0.297942
-0.896227 1.334648 -0.302468
-0.895813 1.334031 -0.306967
-0.895310 1.333281 -0.311430
-0.894763 1.332466 -0.315872
-0.894185 1.331606 -0.320298
-0.893287 1.330268 -0.324602
-0.891854 1.328135 -0.328699
-0.890542 1.326181 -0.332827
-0.887396 1.321496 -0.336246
-0.886135 1.319618 -0.340356
-0.885102 1.318080 -0.344543
-0.884326 1.316924 -0.348819
-0.878620 1.308427 -0.351118
-0.874002 1.301550 -0.353798
-0.873492 1.300790 -0.358114
-0.873219 1.300383 -0.362524
-0.873023 1.300093 -0.366963
-0.872750 1.299685 -0.371367
-0.872481 1.299284 -0.375770
-0.872332 1.299063 -0.380223
-0.872302 1.299018 -0.384727
-0.872305 1.299023 -0.389245
-0.872182 1.298840 -0.393706
-0.871637 1.298028 -0.397973
-0.870658 1.296570 -0.402034
-0.869396 1.294691 -0.405953
-0.865988 1.289616 -0.408846
-0.853184 1.270548 -0.407218
-0.846050 1.259923 -0.408194
-0.846957 1.261275 -0.413017
-0.847973 1.262788 -0.417904
-0.848690 1.263855 -0.422651
-0.849358 1.264850 -0.427382
-0.850414 1.266423 -0.432316
-0.852513 1.269549 -0.437798
-0.856282 1.275162 -0.444167
-0.875104 1.303191 -0.458461
-0.876927 1.305906 -0.463957
-0.875776 1.304191 -0.467883
-0.873852 1.301326 -0.471380
-0.871549 1.297897 -0.474650
-0.869484 1.294822 -0.478028
-0.868331 1.293104 -0.481890
-0.868041 1.292672 -0.486223
-0.868316 1.293082 -0.490873
-0.868809 1.293817 -0.495651
-0.869048 1.294173 -0.500287
-0.869037 1.294156 -0.504780
-0.868991 1.294088 -0.509253
-0.868918 1.293979 -0.513710
-0.868772 1.293761 -0.518121
-0.868477 1.293322 -0.522443
-0.868007 1.292622 -0.526654
-0.867234 1.291471 -0.530676
-0.866019 1.289662 -0.534416
-0.864549 1.287473 -0.537986
-0.863503 1.285915 -0.541806
-0.907623 1.357867 0.631806
-0.907549 1.357757 0.627034
-0.907430 1.357578 0.622231
-0.907316 1.357407 0.617433
-0.907210 1.357250 0.612643
-0.907093 1.357075 0.607845
-0.906970 1.356891 0.603045
-0.906878 1.356753 0.598266
-0.906836 1.356690 0.593521
-0.906801 1.356638 0.588781
-0.906695 1.356479 0.583996
-0.906455 1.356120 0.579126
-0.906162 1.355682 0.574225
-0.905905 1.355298 0.569350
-0.905697 1.354985 0.564508
-0.905438 1.354598 0.559636
-0.905132 1.354140 0.554739
-0.904829 1.353688 0.549847
-0.904569 1.353298 0.544983
-0.904395 1.353038 0.540174
-0.904319 1.352924 0.535424
-0.904331 1.352943 0.530728
-0.904415 1.353068 0.526072
-0.904506 1.353204 0.521420
-0.904534 1.353247 0.516731
-0.904541 1.353256 0.512029
-0.904610 1.353359 0.507363
-0.904732 1.353543 0.502725
-0.904826 1.353683 0.498071
-0.904801 1.353646 0.493350
-0.904671 1.353451 0.488573
-0.904543 1.353260 0.483799
-0.904474 1.353156 0.479057
-0.904476 1.353159 0.474353
-0.904530 1.353240 0.469677
-0.904633 1.353394 0.465024
-0.904743 1.353558 0.460374
-0.904870 1.353749 0.455732
-0.905060 1.354033 0.451120
-0.905299 1.354391 0.446530
-0.905480 1.354662 0.441909
-0.905550 1.354766 0.437233
-0.905533 1.354741 0.432514
-0.905414 1.354562 0.427747
-0.905208 1.354254 0.422941
-0.905022 1.353976 0.418147
-0.904914 1.353814 0.413389
-0.904781 1.353616 0.408622
-0.904538 1.353253 0.403807
-0.904227 1.352787 0.398965
-0.903964 1.352393 0.394146
-0.903851 1.352224 0.389396
-0.903839 1.352206 0.384689
-0.903804 1.352155 0.379973
-0.903643 1.351913 0.375204
-0.903359 1.351487 0.370387
-0.903079 1.351070 0.365575
-0.902865 1.350749 0.360792
-0.902669 1.350456 0.356018
-0.902479 1.350171 0.351248
-0.902378 1.350020 0.346515
-0.902278 1.349871 0.341783
-0.902021 1.349486 0.336994
-0.901660 1.348946 0.332168
-0.901287 1.348389 0.327343
-0.900944 1.347876 0.322532
-0.900624 1.347397 0.317732
-0.900311 1.346928 0.312938
-0.900011 1.346480 0.308153
-0.899779 1.346133 0.303393
-0.899624 1.345900 0.298661
-0.899522 1.345748 0.293948
-0.899439 1.345624 0.289242
-0.899287 1.345397 0.284515
-0.899049 1.345040 0.279763
-0.898741 1.344580 0.274992
-0.898517 1.344245 0.270250
-0.898510 1.344234 0.265574
-0.898635 1.344420 0.260936
-0.898690 1.344503 0.256277
-0.898623 1.344403 0.251584
-0.898467 1.344169 0.246866
-0.898277 1.343885 0.242141
-0.898088 1.343602 0.237419
-0.897975 1.343434 0.232718
-0.897982 1.343444 0.228048
-0.898080 1.343590 0.223402
-0.898226 1.343809 0.218766
-0.898466 1.344168 0.214150
-0.898784 1.344643 0.209551
-0.899088 1.345098 0.204945
-0.899296 1.345410 0.200314
-0.899476 1.345678 0.195675
-0.899619 1.345893 0.191027
-0.899622 1.345897 0.186348
-0.899431 1.345612 0.181630
-0.899187 1.345247 0.176903
-0.899051 1.345044 0.172200
-0.899045 1.345034 0.167522
-0.899044 1.345032 0.162845
-0.898986 1.344946 0.158158
-0.898960 1.344907 0.153477
-0.899049 1.345040 0.148816
-0.899208 1.345278 0.144165
-0.899312 1.345433 0.139503
-0.899317 1.345442 0.134826
-0.899285 1.345393 0.130143
-0.899262 1.345358 0.125462
-0.899279 1.345384 0.120786
-0.899333 1.345465 0.116116
-0.899338 1.345473 0.111438
-0.899222 1.345299 0.106746
-0.899058 1.345053 0.102050
-0.898918 1.344845 0.097358
-0.898799 1.344666 0.092670
-0.898605 1.344376 0.087975
-0.898367 1.344020 0.083279
-0.898241 1.343832 0.078595
-0.898311 1.343936 0.073928
-0.898523 1.344254 0.069271
-0.898735 1.344570 0.064613
-0.898842 1.344730 0.059945
-0.898869 1.344771 0.055271
-0.898910 1.344832 0.050597
-0.898861 1.344759 0.045919
-0.898695 1.344511 0.041236
-0.898556 1.344302 0.036555
-0.898589 1.344351 0.031882
-0.898734 1.344569 0.027212
-0.898931 1.344864 0.022542
-0.899154 1.345198 0.017871
-0.899388 1.345548 0.013197
-0.899585 1.345842 0.008520
-0.899748 1.346086 0.003841
-0.899909 1.346327 -0.000839
-0.900044 1.346529 -0.005521
-0.900132 1.346660 -0.010204
-0.900229 1.346805 -0.014888
-0.900380 1.347032 -0.019574
-0.900609 1.347374 -0.024264
-0.900920 1.347839 -0.028959
-0.901266 1.348357 -0.033658
-0.901596 1.348850 -0.038360
-0.901879 1.349274 -0.043064
-0.902055 1.349537 -0.047764
-0.902122 1.349638 -0.052461
-0.902163 1.349698 -0.057156
-0.902218 1.349781 -0.061853
-0.902375 1.350016 -0.066557
-0.902699 1.350500 -0.071277
-0.903047 1.351021 -0.076002
-0.903288 1.351382 -0.080721
-0.903462 1.351642 -0.085436
-0.903589 1.351832 -0.090148
-0.903661 1.351940 -0.094856
-0.903694 1.351989 -0.099560
-0.903686 1.351977 -0.104260
-0.903660 1.351939 -0.108958
-0.903654 1.351929 -0.113658
-0.903681 1.351970 -0.118362
-0.903690 1.351984 -0.123064
-0.903652 1.351927 -0.127760
-0.903594 1.351840 -0.132452
-0.903542 1.351762 -0.137144
-0.903516 1.351723 -0.141840
-0.903495 1.351692 -0.146537
-0.903431 1.351595 -0.151226
-0.903340 1.351460 -0.155910
-0.903325 1.351438 -0.160606
-0.903405 1.351557 -0.165320
-0.903442 1.351612 -0.170026
-0.903316 1.351424 -0.174701
-0.903040 1.351011 -0.179345
-0.902674 1.350464 -0.183968
-0.902314 1.349925 -0.188588
-0.902045 1.349522 -0.193224
-0.901769 1.349110 -0.197856
-0.901442 1.348620 -0.202473
-0.901127 1.348148 -0.207090
-0.900842 1.347722 -0.211711
-0.900561 1.347302 -0.216329
-0.900335 1.346964 -0.220958
-0.900154 1.346694 -0.225596
-0.899908 1.346326 -0.230216
-0.899559 1.345803 -0.234806
-0.899071 1.345073 -0.239355
-0.898421 1.344100 -0.243856
-0.897633 1.342922 -0.248311
-0.896717 1.341551 -0.252722
-0.895711 1.340046 -0.257098
-0.894818 1.338710 -0.261496
-0.894157 1.337721 -0.265954
-0.893621 1.336920 -0.270444
-0.893142 1.336203 -0.274945
-0.892746 1.335610 -0.279467
-0.892487 1.335222 -0.284028
-0.892292 1.334931 -0.288607
-0.892054 1.334575 -0.293171
-0.891732 1.334093 -0.297704
-0.891357 1.333532 -0.302215
-0.890903 1.332853 -0.306695
-0.890371 1.332057 -0.311144
-0.889814 1.331225 -0.315578
-0.889238 1.330363 -0.319999
-0.888193 1.328799 -0.324244
-0.886412 1.326135 -0.328204
-0.884615 1.323446 -0.332141
-0.879947 1.316462 -0.334965
-0.878164 1.313794 -0.338854
-0.877752 1.313177 -0.343261
-0.876896 1.311898 -0.347488
-0.869638 1.301039 -0.349136
-0.868405 1.299194 -0.353158
-0.867932 1.298487 -0.357480
-0.867890 1.298424 -0.361978
-0.867843 1.298353 -0.366472
-0.867608 1.298002 -0.370886
-0.867324 1.297577 -0.375277
-0.867167 1.297343 -0.379720
-0.867214 1.297412 -0.384251
-0.867157 1.297327 -0.388737
-0.866937 1.296999 -0.393148
-0.866146 1.295815 -0.397295
-0.864291 1.293039 -0.400940
-0.847517 1.267944 -0.397567
-0.840707 1.257756 -0.398745
-0.840540 1.257506 -0.403039
-0.841065 1.258291 -0.407665
-0.841780 1.259361 -0.412391
-0.842678 1.260705 -0.417214
-0.843640 1.262144 -0.422079
-0.844506 1.263440 -0.426905
-0.845530 1.264971 -0.431821
-0.853850 1.277419 -0.440512
-0.871276 1.303490 -0.454034
-0.873850 1.307341 -0.459921
-0.873937 1.307471 -0.464513
-0.872077 1.304688 -0.468061
-0.869697 1.301127 -0.471307
-0.867447 1.297761 -0.474600
-0.865687 1.295129 -0.478141
-0.864619 1.293530 -0.482048
-0.864271 1.293010 -0.486350
-0.864473 1.293311 -0.490960
-0.864849 1.293874 -0.495673
-0.865002 1.294103 -0.500260
-0.864927 1.293991 -0.504716
-0.864865 1.293898 -0.509179
-0.864699 1.293651 -0.513579
-0.864467 1.293303 -0.517938
-0.864088 1.292736 -0.522206
-0.863519 1.291884 -0.526354
-0.862666 1.290609 -0.530321
-0.861333 1.288614 -0.533982
-0.859766 1.286269 -0.537483
-0.858650 1.284600 -0.541252
-0.903089 1.357361 0.631571
-0.903019 1.357255 0.626802
-0.902899 1.357074 0.622000
-0.902767 1.356876 0.617192
-0.902639 1.356685 0.612387
-0.902523 1.356510 0.607592
-0.902413 1.356344 0.602802
-0.902332 1.356223 0.598032
-0.902290 1.356159 0.593289
-0.902250 1.356100 0.588548
-0.902144 1.355940 0.583763
-0.901902 1.355577 0.578894
-0.901598 1.355119 0.573987
-0.901338 1.354729 0.569111
-0.901121 1.354403 0.564265
-0.900855 1.354003 0.559391
-0.900545 1.353537 0.554492
-0.900245 1.353085 0.549602
-0.900000 1.352718 0.544749
-0.899826 1.352456 0.539942
-0.899774 1.352378 0.535208
-0.899818 1.352444 0.530532
-0.899901 1.352569 0.525878
-0.899955 1.352649 0.521206
-0.899953 1.352646 0.516502
-0.899960 1.352657 0.511803
-0.900038 1.352775 0.507144
-0.900160 1.352958 0.502508
-0.900236 1.353073 0.497846
-0.900207 1.353029 0.493126
-0.900085 1.352846 0.488355
-0.899947 1.352638 0.483577
-0.899859 1.352506 0.478827
-0.899847 1.352487 0.474118
-0.899898 1.352564 0.469442
-0.899979 1.352686 0.464781
-0.900072 1.352826 0.460125
-0.900208 1.353030 0.455490
-0.900412 1.353336 0.450888
-0.900650 1.353695 0.446301
-0.900822 1.353953 0.441678
-0.900878 1.354038 0.436998
-0.900867 1.354021 0.432284
-0.900784 1.353896 0.427537
-0.900595 1.353612 0.422741
-0.900378 1.353285 0.417933
-0.900213 1.353038 0.413152
-0.900069 1.352821 0.408382
-0.899835 1.352469 0.403574
-0.899526 1.352005 0.398734
-0.899287 1.351646 0.393929
-0.899209 1.351529 0.389195
-0.899221 1.351547 0.384501
-0.899192 1.351503 0.379790
-0.899038 1.351271 0.375026
-0.898769 1.350867 0.370217
-0.898504 1.350469 0.365412
-0.898293 1.350152 0.360632
-0.898102 1.349864 0.355862
-0.897933 1.349612 0.351103
-0.897858 1.349498 0.346381
-0.897767 1.349362 0.341654
-0.897520 1.348990 0.336870
-0.897168 1.348461 0.332049
-0.896796 1.347902 0.327225
-0.896445 1.347374 0.322412
-0.896116 1.346881 0.317611
-0.895795 1.346397 0.312815
-0.895481 1.345926 0.308026
-0.895255 1.345586 0.303270
-0.895094 1.345344 0.298537
-0.894986 1.345182 0.293824
-0.894900 1.345053 0.289119
-0.894739 1.344811 0.284391
-0.894490 1.344436 0.279637
-0.894167 1.343951 0.274863
-0.893935 1.343601 0.270120
-0.893923 1.343583 0.265445
-0.894059 1.343788 0.260813
-0.894117 1.343876 0.256158
-0.894050 1.343774 0.251466
-0.893887 1.343530 0.246749
-0.893693 1.343238 0.242025
-0.893495 1.342941 0.237302
-0.893374 1.342759 0.232601
-0.893383 1.342772 0.227934
-0.893488 1.342929 0.223292
-0.893647 1.343168 0.218661
-0.893900 1.343550 0.214052
-0.894230 1.344045 0.209458
-0.894542 1.344514 0.204856
-0.894755 1.344834 0.200229
-0.894940 1.345112 0.195593
-0.895092 1.345340 0.190948
-0.895085 1.345330 0.186269
-0.894839 1.344960 0.181542
-0.894559 1.344539 0.176810
-0.894447 1.344371 0.172113
-0.894490 1.344436 0.167447
-0.894508 1.344463 0.162776
-0.894456 1.344385 0.158092
-0.894427 1.344342 0.153413
-0.894513 1.344471 0.148753
-0.894678 1.344719 0.144105
-0.894785 1.344880 0.139446
-0.894778 1.344868 0.134768
-0.894732 1.344800 0.130086
-0.894706 1.344761 0.125406
-0.894723 1.344786 0.120733
-0.894795 1.344895 0.116066
-0.894838 1.344960 0.111396
-0.894729 1.344795 0.106706
-0.894535 1.344504 0.102008
-0.894379 1.344268 0.097316
-0.894235 1.344053 0.092627
-0.894002 1.343702 0.087931
-0.893749 1.343323 0.083236
-0.893640 1.343158 0.078555
-0.893738 1.343305 0.073893
-0.893972 1.343658 0.069241
-0.894205 1.344007 0.064586
-0.894318 1.344177 0.059920
-0.894353 1.344230 0.055249
-0.894390 1.344285 0.050577
-0.894336 1.344205 0.045900
-0.894171 1.343957 0.041219
-0.894043 1.343763 0.036540
-0.894078 1.343817 0.031869
-0.894202 1.344003 0.027201
-0.894372 1.344259 0.022532
-0.894569 1.344554 0.017862
-0.894795 1.344895 0.013190
-0.894985 1.345179 0.008516
-0.895129 1.345397 0.003839
-0.895279 1.345622 -0.000839
-0.895440 1.345864 -0.005518
-0.895585 1.346082 -0.010200
-0.895723 1.346289 -0.014882
-0.895880 1.346526 -0.019567
-0.896136 1.346910 -0.024255
-0.896486 1.347437 -0.028950
-0.896823 1.347943 -0.033648
-0.897098 1.348356 -0.038346
-0.897337 1.348715 -0.043046
-0.897495 1.348953 -0.047744
-0.897557 1.349045 -0.052438
-0.897568 1.349062 -0.057129
-0.897576 1.349074 -0.061820
-0.897694 1.349252 -0.066520
-0.897990 1.349697 -0.071234
-0.898315 1.350184 -0.075955
-0.898544 1.350529 -0.080670
-0.898723 1.350798 -0.085383
-0.898878 1.351031 -0.090095
-0.898977 1.351180 -0.094803
-0.899018 1.351241 -0.099505
-0.899022 1.351248 -0.104204
-0.899004 1.351220 -0.108900
-0.899001 1.351216 -0.113598
-0.899046 1.351284 -0.118302
-0.899076 1.351329 -0.123005
-0.899046 1.351284 -0.127699
-0.898975 1.351176 -0.132387
-0.898923 1.351099 -0.137077
-0.898903 1.351069 -0.141772
-0.898887 1.351045 -0.146467
-0.898832 1.350962 -0.151155
-0.898773 1.350873 -0.155842
-0.898809 1.350928 -0.160545
-0.898928 1.351107 -0.165264
-0.898971 1.351171 -0.169970
-0.898829 1.350958 -0.174641
-0.898510 1.350478 -0.179274
-0.898080 1.349832 -0.183882
-0.897658 1.349198 -0.188487
-0.897328 1.348702 -0.193107
-0.897001 1.348210 -0.197724
-0.896662 1.347701 -0.202335
-0.896352 1.347234 -0.206950
-0.896073 1.346815 -0.211568
-0.895802 1.346408 -0.216186
-0.895585 1.346082 -0.220814
-0.895405 1.345811 -0.225449
-0.895174 1.345465 -0.230069
-0.894822 1.344935 -0.234654
-0.894321 1.344182 -0.239197
-0.893661 1.343191 -0.243691
-0.892897 1.342042 -0.248148
-0.891999 1.340692 -0.252560
-0.890987 1.339170 -0.256930
-0.890068 1.337790 -0.261317
-0.889378 1.336752 -0.265762
-0.888816 1.335908 -0.270239
-0.888322 1.335165 -0.274731
-0.887931 1.334578 -0.279251
-0.887676 1.334194 -0.283809
-0.887476 1.333893 -0.288383
-0.887242 1.333542 -0.292944
-0.886922 1.333061 -0.297473
-0.886564 1.332522 -0.301986
-0.886131 1.331872 -0.306470
-0.885607 1.331084 -0.310917
-0.885030 1.330217 -0.315339
-0.884401 1.329273 -0.319737
-0.883020 1.327196 -0.323852
-0.880812 1.323877 -0.327646
-0.874990 1.315128 -0.330053
-0.871863 1.310426 -0.333429
-0.870554 1.308460 -0.337479
-0.869883 1.307451 -0.341764
-0.866246 1.301985 -0.344863
-0.863392 1.297696 -0.348238
-0.862662 1.296598 -0.352452
-0.862131 1.295800 -0.356741
-0.862016 1.295626 -0.361198
-0.862032 1.295650 -0.365709
-0.861991 1.295589 -0.370197
-0.861823 1.295337 -0.374629
-0.861541 1.294913 -0.379009
-0.861374 1.294661 -0.383436
-0.860905 1.293957 -0.387727
-0.859113 1.291264 -0.391410
-0.845329 1.270545 -0.389547
-0.836669 1.257530 -0.389929
-0.835711 1.256090 -0.393850
-0.835616 1.255947 -0.398172
-0.835888 1.256356 -0.402670
-0.836272 1.256933 -0.407225
-0.836877 1.257843 -0.411893
-0.838025 1.259568 -0.416838
-0.839895 1.262379 -0.422157
-0.842146 1.265762 -0.427690
-0.854627 1.284521 -0.438495
-0.868840 1.305883 -0.450327
-0.870498 1.308376 -0.455736
-0.871479 1.309849 -0.460804
-0.870841 1.308892 -0.465018
-0.868479 1.305341 -0.468295
-0.865685 1.301141 -0.471312
-0.863395 1.297700 -0.474578
-0.861798 1.295299 -0.478204
-0.860990 1.294086 -0.482255
-0.860615 1.293521 -0.486543
-0.860733 1.293698 -0.491107
-0.860954 1.294031 -0.495733
-0.860978 1.294067 -0.500246
-0.860873 1.293909 -0.504684
-0.860739 1.293707 -0.509104
-0.860543 1.293413 -0.513485
-0.860205 1.292904 -0.517778
-0.859662 1.292089 -0.521944
-0.858970 1.291049 -0.526013
-0.858057 1.289677 -0.529938
-0.856635 1.287539 -0.533537
-0.854865 1.284878 -0.536902
-0.853621 1.283009 -0.540582
-0.898668 1.357020 0.631412
-0.898602 1.356919 0.626647
-0.898477 1.356731 0.621843
-0.898328 1.356506 0.617023
-0.898189 1.356296 0.612212
-0.898070 1.356117 0.607416
-0.897964 1.355957 0.602629
-0.897888 1.355841 0.597864
-0.897844 1.355775 0.593121
-0.897803 1.355713 0.588380
-0.897694 1.355549 0.583595
-0.897457 1.355191 0.578729
-0.897149 1.354725 0.573820
-0.896887 1.354331 0.568944
-0.896666 1.353996 0.564096
-0.896394 1.353585 0.559218
-0.896080 1.353111 0.554317
-0.895784 1.352665 0.549431
-0.895542 1.352299 0.544581
-0.895381 1.352055 0.539782
-0.895348 1.352005 0.535061
-0.895413 1.352103 0.530398
-0.895489 1.352218 0.525742
-0.895518 1.352262 0.521057
-0.895512 1.352254 0.516352
-0.895534 1.352286 0.511663
-0.895628 1.352429 0.507014
-0.895758 1.352626 0.502385
-0.895833 1.352738 0.497723
-0.895803 1.352694 0.493003
-0.895689 1.352521 0.488238
-0.895554 1.352316 0.483462
-0.895459 1.352173 0.478709
-0.895433 1.352134 0.473994
-0.895472 1.352193 0.469313
-0.895548 1.352307 0.464651
-0.895639 1.352445 0.459996
-0.895773 1.352647 0.455361
-0.895976 1.352954 0.450760
-0.896206 1.353301 0.446171
-0.896370 1.353549 0.441546
-0.896425 1.353633 0.436867
-0.896417 1.353620 0.432156
-0.896348 1.353515 0.427417
-0.896168 1.353244 0.422626
-0.895934 1.352890 0.417811
-0.895740 1.352598 0.413018
-0.895581 1.352358 0.408243
-0.895342 1.351996 0.403433
-0.895038 1.351538 0.398597
-0.894809 1.351192 0.393796
-0.894735 1.351081 0.389066
-0.894752 1.351105 0.384376
-0.894750 1.351103 0.379677
-0.894627 1.350917 0.374928
-0.894385 1.350553 0.370131
-0.894136 1.350177 0.365333
-0.893925 1.349857 0.360553
-0.893740 1.349577 0.355786
-0.893596 1.349360 0.351037
-0.893545 1.349283 0.346326
-0.893480 1.349186 0.341610
-0.893267 1.348864 0.336838
-0.892909 1.348324 0.332015
-0.892512 1.347724 0.327181
-0.892144 1.347167 0.322362
-0.891814 1.346670 0.317561
-0.891480 1.346165 0.312761
-0.891166 1.345691 0.307972
-0.890948 1.345361 0.303219
-0.890782 1.345111 0.298486
-0.890663 1.344931 0.293769
-0.890577 1.344801 0.289065
-0.890426 1.344573 0.284341
-0.890163 1.344176 0.279583
-0.889829 1.343671 0.274806
-0.889583 1.343300 0.270060
-0.889570 1.343281 0.265385
-0.889708 1.343490 0.260755
-0.889772 1.343586 0.256102
-0.889701 1.343479 0.251411
-0.889535 1.343228 0.246693
-0.889335 1.342927 0.241969
-0.889125 1.342610 0.237243
-0.888996 1.342414 0.232541
-0.889002 1.342423 0.227875
-0.889112 1.342589 0.223235
-0.889280 1.342843 0.218608
-0.889551 1.343253 0.214005
-0.889895 1.343772 0.209415
-0.890215 1.344256 0.204816
-0.890429 1.344578 0.200190
-0.890620 1.344867 0.195557
-0.890783 1.345113 0.190916
-0.890783 1.345112 0.186239
-0.890507 1.344696 0.181506
-0.890202 1.344235 0.176770
-0.890101 1.344083 0.172077
-0.890170 1.344187 0.167416
-0.890200 1.344232 0.162748
-0.890152 1.344160 0.158066
-0.890118 1.344109 0.153386
-0.890196 1.344226 0.148726
-0.890355 1.344466 0.144078
-0.890452 1.344613 0.139418
-0.890438 1.344592 0.134741
-0.890387 1.344515 0.130058
-0.890360 1.344473 0.125379
-0.890381 1.344505 0.120708
-0.890460 1.344626 0.116043
-0.890512 1.344704 0.111374
-0.890404 1.344541 0.106686
-0.890216 1.344257 0.101989
-0.890064 1.344027 0.097299
-0.889922 1.343812 0.092611
-0.889666 1.343426 0.087913
-0.889388 1.343007 0.083216
-0.889274 1.342834 0.078536
-0.889392 1.343013 0.073877
-0.889652 1.343404 0.069228
-0.889904 1.343785 0.064575
-0.890039 1.343990 0.059912
-0.890080 1.344051 0.055241
-0.890110 1.344097 0.050570
-0.890069 1.344035 0.045894
-0.889931 1.343826 0.041215
-0.889798 1.343625 0.036537
-0.889772 1.343586 0.031864
-0.889857 1.343715 0.027195
-0.890047 1.344001 0.022528
-0.890297 1.344379 0.017860
-0.890546 1.344755 0.013189
-0.890717 1.345013 0.008515
-0.890830 1.345184 0.003839
-0.890977 1.345406 -0.000839
-0.891156 1.345676 -0.005518
-0.891317 1.345918 -0.010198
-0.891472 1.346153 -0.014881
-0.891656 1.346430 -0.019565
-0.891931 1.346846 -0.024254
-0.892258 1.347340 -0.028948
-0.892549 1.347780 -0.033644
-0.892789 1.348142 -0.038340
-0.893016 1.348484 -0.043038
-0.893153 1.348691 -0.047734
-0.893180 1.348732 -0.052425
-0.893156 1.348697 -0.057113
-0.893148 1.348684 -0.061802
-0.893257 1.348849 -0.066500
-0.893524 1.349252 -0.071211
-0.893836 1.349723 -0.075929
-0.894072 1.350079 -0.080643
-0.894272 1.350381 -0.085356
-0.894446 1.350644 -0.090069
-0.894563 1.350821 -0.094778
-0.894624 1.350913 -0.099481
-0.894643 1.350941 -0.104181
-0.894625 1.350914 -0.108876
-0.894610 1.350892 -0.113571
-0.894651 1.350954 -0.118273
-0.894694 1.351018 -0.122976
-0.894669 1.350980 -0.127670
-0.894588 1.350859 -0.132356
-0.894535 1.350778 -0.137044
-0.894523 1.350760 -0.141739
-0.894502 1.350728 -0.146432
-0.894452 1.350653 -0.151120
-0.894435 1.350628 -0.155814
-0.894527 1.350766 -0.160526
-0.894670 1.350983 -0.165249
-0.894716 1.351052 -0.169955
-0.894580 1.350847 -0.174626
-0.894263 1.350368 -0.179260
-0.893821 1.349699 -0.183864
-0.893363 1.349009 -0.188460
-0.892951 1.348386 -0.193062
-0.892558 1.347794 -0.197663
-0.892206 1.347262 -0.202270
-0.891904 1.346805 -0.206884
-0.891618 1.346373 -0.211499
-0.891347 1.345964 -0.216114
-0.891130 1.345637 -0.220741
-0.890966 1.345389 -0.225378
-0.890755 1.345071 -0.230001
-0.890411 1.344551 -0.234587
-0.889904 1.343786 -0.239126
-0.889243 1.342788 -0.243618
-0.888512 1.341683 -0.248082
-0.887627 1.340348 -0.252496
-0.886605 1.338804 -0.256860
-0.885666 1.337386 -0.261238
-0.884941 1.336291 -0.265670
-0.884348 1.335396 -0.270135
-0.883835 1.334621 -0.274619
-0.883450 1.334039 -0.279138
-0.883180 1.333632 -0.283690
-0.882956 1.333294 -0.288254
-0.882696 1.332901 -0.292803
-0.882358 1.332391 -0.297324
-0.882000 1.331850 -0.301834
-0.881578 1.331213 -0.306318
-0.881068 1.330442 -0.310767
-0.880450 1.329510 -0.315172
-0.879642 1.328289 -0.319501
-0.877766 1.325457 -0.323428
-0.874850 1.321053 -0.326947
-0.865594 1.307076 -0.328032
-0.864365 1.305221 -0.332105
-0.863205 1.303470 -0.336191
-0.862501 1.302406 -0.340445
-0.857910 1.295474 -0.343138
-0.857335 1.294605 -0.347409
-0.856856 1.293882 -0.351714
-0.856550 1.293419 -0.356085
-0.856398 1.293190 -0.360519
-0.856418 1.293221 -0.365024
-0.856328 1.293084 -0.369481
-0.855768 1.292239 -0.373733
-0.854719 1.290655 -0.377762
-0.853340 1.288572 -0.381633
-0.846426 1.278132 -0.382985
-0.836482 1.263117 -0.382878
-0.830985 1.254816 -0.384724
-0.830715 1.254407 -0.388961
-0.830799 1.254535 -0.393362
-0.831236 1.255195 -0.397934
-0.831688 1.255878 -0.402517
-0.832107 1.256511 -0.407088
-0.832828 1.257598 -0.411813
-0.834691 1.260412 -0.417117
-0.847471 1.279710 -0.427953
-0.864145 1.304888 -0.440910
-0.869615 1.313149 -0.448267
-0.872155 1.316984 -0.454156
-0.871873 1.316558 -0.458586
-0.871342 1.315756 -0.462882
-0.869560 1.313065 -0.466501
-0.867502 1.309957 -0.469951
-0.864522 1.305457 -0.472876
-0.862254 1.302034 -0.476163
-0.860506 1.299394 -0.479715
-0.858830 1.296863 -0.483290
-0.858403 1.296218 -0.487557
-0.857785 1.295285 -0.491710
-0.857990 1.295594 -0.496332
-0.857908 1.295470 -0.500789
-0.857662 1.295099 -0.505148
-0.857693 1.295145 -0.509669
-0.857650 1.295081 -0.514147
-0.856813 1.293817 -0.518144
-0.855903 1.292442 -0.522087
-0.855073 1.291189 -0.526070
-0.853977 1.289534 -0.529880
-0.852312 1.287021 -0.533322
-0.850361 1.284074 -0.536566
-0.849015 1.282041 -0.540174
-0.894355 1.356839 0.631328
-0.894284 1.356731 0.626561
-0.894153 1.356532 0.621752
-0.893999 1.356298 0.616929
-0.893852 1.356076 0.612113
-0.893726 1.355884 0.607312
-0.893609 1.355708 0.602519
-0.893530 1.355588 0.597752
-0.893483 1.355516 0.593007
-0.893434 1.355442 0.588262
-0.893317 1.355264 0.583473
-0.893073 1.354893 0.578602
-0.892753 1.354408 0.573686
-0.892493 1.354014 0.568811
-0.892269 1.353674 0.563961
-0.891995 1.353259 0.559083
-0.891677 1.352777 0.554180
-0.891383 1.352331 0.549296
-0.891150 1.351977 0.544451
-0.890997 1.351744 0.539657
-0.890970 1.351704 0.534941
-0.891035 1.351802 0.530280
-0.891091 1.351887 0.525613
-0.891113 1.351920 0.520925
-0.891129 1.351945 0.516234
-0.891173 1.352012 0.511559
-0.891273 1.352163 0.506914
-0.891401 1.352357 0.502285
-0.891478 1.352474 0.497626
-0.891454 1.352438 0.492910
-0.891347 1.352275 0.488149
-0.891226 1.352092 0.483382
-0.891151 1.351978 0.478640
-0.891131 1.351948 0.473929
-0.891168 1.352004 0.469248
-0.891253 1.352133 0.464591
-0.891353 1.352284 0.459941
-0.891486 1.352486 0.455307
-0.891689 1.352794 0.450707
-0.891921 1.353146 0.446120
-0.892067 1.353368 0.441487
-0.892106 1.353427 0.436800
-0.892070 1.353372 0.432077
-0.891960 1.353205 0.427319
-0.891778 1.352930 0.422528
-0.891590 1.352644 0.417735
-0.891424 1.352392 0.412955
-0.891240 1.352113 0.408169
-0.890987 1.351729 0.403353
-0.890700 1.351294 0.398525
-0.890495 1.350984 0.393736
-0.890422 1.350873 0.389006
-0.890440 1.350899 0.384317
-0.890473 1.350950 0.379634
-0.890424 1.350875 0.374916
-0.890250 1.350611 0.370147
-0.890022 1.350266 0.365357
-0.889785 1.349906 0.360566
-0.889579 1.349594 0.355790
-0.889444 1.349389 0.351045
-0.889403 1.349326 0.346337
-0.889351 1.349247 0.341625
-0.889151 1.348944 0.336858
-0.888783 1.348385 0.332030
-0.888373 1.347764 0.327191
-0.888022 1.347231 0.322377
-0.887715 1.346765 0.317583
-0.887383 1.346261 0.312784
-0.887087 1.345812 0.308000
-0.886872 1.345487 0.303247
-0.886705 1.345233 0.298513
-0.886589 1.345056 0.293797
-0.886510 1.344938 0.289094
-0.886369 1.344723 0.284373
-0.886109 1.344329 0.279615
-0.885779 1.343829 0.274839
-0.885537 1.343461 0.270092
-0.885523 1.343440 0.265417
-0.885654 1.343638 0.260784
-0.885710 1.343724 0.256129
-0.885636 1.343612 0.251436
-0.885471 1.343361 0.246718
-0.885274 1.343063 0.241993
-0.885062 1.342740 0.237266
-0.884929 1.342539 0.232563
-0.884929 1.342539 0.227895
-0.885036 1.342701 0.223254
-0.885203 1.342955 0.218626
-0.885486 1.343383 0.214025
-0.885835 1.343914 0.209437
-0.886152 1.344393 0.204837
-0.886358 1.344707 0.200210
-0.886548 1.344994 0.195576
-0.886725 1.345263 0.190938
-0.886746 1.345295 0.186265
-0.886515 1.344944 0.181540
-0.886235 1.344520 0.176807
-0.886113 1.344335 0.172109
-0.886141 1.344378 0.167440
-0.886157 1.344402 0.162768
-0.886109 1.344329 0.158085
-0.886074 1.344276 0.153405
-0.886149 1.344389 0.148744
-0.886298 1.344616 0.144094
-0.886390 1.344755 0.139433
-0.886377 1.344736 0.134755
-0.886334 1.344670 0.130073
-0.886315 1.344641 0.125395
-0.886338 1.344676 0.120723
-0.886415 1.344793 0.116058
-0.886452 1.344849 0.111386
-0.886345 1.344687 0.106698
-0.886177 1.344432 0.102003
-0.886047 1.344234 0.097314
-0.885930 1.344056 0.092628
-0.885734 1.343760 0.087935
-0.885502 1.343408 0.083241
-0.885360 1.343193 0.078557
-0.885411 1.343269 0.073891
-0.885634 1.343608 0.069238
-0.885886 1.343991 0.064585
-0.886039 1.344223 0.059922
-0.886091 1.344302 0.055252
-0.886111 1.344331 0.050579
-0.886070 1.344269 0.045902
-0.885947 1.344082 0.041222
