# This PCD file was generated using the MATLAB® pcwrite function
# from Computer Vision System Toolbox®.
# .PCD v.7 - Point Cloud Data file format
VERSION .7
FIELDS x y z
SIZE 4 4 4
TYPE F F F
COUNT 1 1 1
WIDTH 1739
HEIGHT 1
VIEWPOINT 0 0 0 1 0 0 0
POINTS 1739
DATA ascii
0.666001 1.063643 0.121313
0.666155 1.063888 0.117644
0.666329 1.064166 0.113977
0.666529 1.064485 0.110313
0.666741 1.064824 0.106648
0.666949 1.065156 0.102980
0.667166 1.065504 0.099312
0.667403 1.065881 0.095643
0.667642 1.066263 0.091973
0.667861 1.066612 0.088297
0.668092 1.066982 0.084620
0.668333 1.067367 0.080942
0.668544 1.067704 0.077258
0.668711 1.067971 0.073566
0.668867 1.068220 0.069872
0.669011 1.068450 0.066174
0.669124 1.068630 0.062472
0.669201 1.068753 0.058766
0.669278 1.068876 0.055059
0.669383 1.069043 0.051353
0.669507 1.069241 0.047647
0.669631 1.069440 0.043940
0.669757 1.069641 0.040232
0.669885 1.069845 0.036522
0.669995 1.070020 0.032810
0.670042 1.070096 0.029095
0.670047 1.070103 0.025377
0.670073 1.070146 0.021659
0.670126 1.070230 0.017942
0.670167 1.070296 0.014225
0.670198 1.070345 0.010506
0.670308 1.070521 0.006788
0.670490 1.070812 0.003069
0.670669 1.071097 -0.000651
0.670810 1.071323 -0.004374
0.670914 1.071488 -0.008098
0.670967 1.071573 -0.011822
0.670987 1.071606 -0.015545
0.671007 1.071638 -0.019269
0.671026 1.071668 -0.022994
0.671033 1.071679 -0.026717
0.670998 1.071623 -0.030439
0.670921 1.071500 -0.034159
0.670819 1.071336 -0.037876
0.670700 1.071147 -0.041591
0.670591 1.070972 -0.045306
0.670520 1.070860 -0.049022
0.670543 1.070897 -0.052745
0.670680 1.071115 -0.056477
0.670867 1.071414 -0.060216
0.670995 1.071618 -0.063950
0.671070 1.071737 -0.067681
0.671126 1.071827 -0.071411
0.671169 1.071895 -0.075140
0.671169 1.071895 -0.078865
0.671113 1.071807 -0.082582
0.671029 1.071672 -0.086295
0.670959 1.071560 -0.090010
0.670927 1.071509 -0.093729
0.670908 1.071480 -0.097449
0.670897 1.071462 -0.101170
0.670924 1.071505 -0.104897
0.671013 1.071648 -0.108635
0.671139 1.071848 -0.112379
0.671267 1.072053 -0.116126
0.671391 1.072250 -0.119873
0.671490 1.072409 -0.123617
0.671590 1.072569 -0.127362
0.671702 1.072747 -0.131111
0.671814 1.072926 -0.134860
0.671886 1.073041 -0.138603
0.671928 1.073108 -0.142341
0.671980 1.073191 -0.146080
0.672053 1.073308 -0.149826
0.672145 1.073455 -0.153576
0.672282 1.073674 -0.157338
0.672462 1.073961 -0.161112
0.672658 1.074274 -0.164891
0.672845 1.074573 -0.168671
0.673011 1.074838 -0.172447
0.673149 1.075059 -0.176218
0.673280 1.075268 -0.179988
0.673429 1.075505 -0.183765
0.673576 1.075741 -0.187543
0.673667 1.075886 -0.191307
0.673683 1.075911 -0.195049
0.673667 1.075885 -0.198783
0.673675 1.075899 -0.202524
0.673740 1.076003 -0.206282
0.673869 1.076208 -0.210061
0.674053 1.076502 -0.213859
0.674241 1.076802 -0.217660
0.674398 1.077053 -0.221453
0.674528 1.077261 -0.225239
0.674597 1.077371 -0.229005
0.674592 1.077363 -0.232747
0.674575 1.077335 -0.236484
0.674587 1.077355 -0.240232
0.674588 1.077357 -0.243976
0.674564 1.077318 -0.247710
0.674478 1.077180 -0.251421
0.674366 1.077002 -0.255122
0.674276 1.076858 -0.258829
0.674233 1.076790 -0.262554
0.674230 1.076784 -0.266294
0.674243 1.076806 -0.270041
0.674265 1.076840 -0.273791
0.674341 1.076962 -0.277565
0.674503 1.077220 -0.281374
0.674682 1.077506 -0.285193
0.674714 1.077558 -0.288950
0.674591 1.077361 -0.292641
0.675052 1.078097 -0.296587
0.675318 1.078522 -0.300451
0.675835 1.079348 -0.304432
0.676957 1.081139 -0.308693
0.677837 1.082545 -0.312856
0.677782 1.082458 -0.316592
0.677380 1.081815 -0.320163
0.677235 1.081584 -0.323853
0.677004 1.081216 -0.327499
0.676603 1.080575 -0.331060
0.676077 1.079735 -0.334554
0.675566 1.078919 -0.338050
0.675155 1.078262 -0.341591
0.674715 1.077560 -0.345112
0.674251 1.076818 -0.348616
0.673741 1.076004 -0.352091
0.673301 1.075301 -0.355598
0.673479 1.075585 -0.359429
0.675573 1.078930 -0.364295
0.679400 1.085041 -0.370129
0.681832 1.088925 -0.375237
0.682561 1.090090 -0.379426
0.683055 1.090879 -0.383491
0.683764 1.092012 -0.387684
0.684559 1.093281 -0.391933
0.685301 1.094466 -0.396161
0.686122 1.095777 -0.400443
0.686938 1.097081 -0.404731
0.687960 1.098713 -0.409151
0.689253 1.100777 -0.413744
0.692511 1.105981 -0.419543
0.656712 1.043659 0.485290
0.656762 1.043739 0.481701
0.656739 1.043702 0.478058
0.656596 1.043475 0.474328
0.656420 1.043195 0.470576
0.656290 1.042989 0.466859
0.656168 1.042794 0.463148
0.656018 1.042556 0.459420
0.655845 1.042282 0.455678
0.655683 1.042024 0.451944
0.655554 1.041819 0.448236
0.655459 1.041669 0.444551
0.655368 1.041523 0.440870
0.655268 1.041365 0.437185
0.655165 1.041201 0.433499
0.655051 1.041019 0.429806
0.654891 1.040766 0.426085
0.654759 1.040556 0.422384
0.654693 1.040450 0.418725
0.654696 1.040455 0.415112
0.654685 1.040439 0.411491
0.654667 1.040410 0.407864
0.654675 1.040421 0.404254
0.654684 1.040437 0.400644
0.654720 1.040493 0.397051
0.654832 1.040672 0.393503
0.655010 1.040954 0.389993
0.655187 1.041236 0.386481
0.655347 1.041490 0.382956
0.655531 1.041782 0.379444
0.655775 1.042170 0.375964
0.656079 1.042654 0.372516
0.656423 1.043200 0.369086
0.656721 1.043674 0.365628
0.656993 1.044106 0.362151
0.657204 1.044441 0.358638
0.657384 1.044727 0.355106
0.657581 1.045040 0.351581
0.657806 1.045397 0.348069
0.658035 1.045762 0.344557
0.658242 1.046090 0.341031
0.658439 1.046404 0.337497
0.658636 1.046718 0.333961
0.658840 1.047042 0.330427
0.659043 1.047364 0.326889
0.659219 1.047643 0.323336
0.659354 1.047858 0.319761
0.659472 1.048046 0.316177
0.659561 1.048187 0.312578
0.659630 1.048297 0.308968
0.659692 1.048396 0.305355
0.659775 1.048528 0.301750
0.659909 1.048740 0.298167
0.660086 1.049022 0.294602
0.660258 1.049295 0.291033
0.660426 1.049562 0.287460
0.660639 1.049900 0.283905
0.660919 1.050346 0.280376
0.661274 1.050910 0.276875
0.661618 1.051456 0.273365
0.661954 1.051991 0.269849
0.662342 1.052607 0.266350
0.662764 1.053277 0.262860
0.663107 1.053823 0.259334
0.663412 1.054307 0.255790
0.663751 1.054846 0.252256
0.664111 1.055417 0.248725
0.664389 1.055860 0.245161
0.664651 1.056277 0.241587
0.664969 1.056782 0.238031
0.665345 1.057379 0.234492
0.665732 1.057995 0.230952
0.666066 1.058525 0.227390
0.666348 1.058973 0.223806
0.666641 1.059438 0.220224
0.666985 1.059985 0.216654
0.667281 1.060457 0.213066
0.667548 1.060881 0.209465
0.667831 1.061330 0.205866
0.668081 1.061728 0.202254
0.668232 1.061968 0.198610
0.668287 1.062055 0.194936
0.668311 1.062093 0.191253
0.668349 1.062154 0.187573
0.668403 1.062239 0.183897
0.668452 1.062317 0.180220
0.668469 1.062344 0.176533
0.668453 1.062319 0.172838
0.668416 1.062260 0.169137
0.668357 1.062166 0.165431
0.668291 1.062060 0.161725
0.668261 1.062014 0.158028
0.668295 1.062067 0.154345
0.668374 1.062194 0.150673
0.668462 1.062333 0.147002
0.668548 1.062470 0.143329
0.668654 1.062637 0.139659
0.668778 1.062834 0.135992
0.668901 1.063031 0.132324
0.669014 1.063210 0.128652
0.669135 1.063402 0.124980
0.669276 1.063627 0.121311
0.669436 1.063881 0.117643
0.669626 1.064183 0.113979
0.669849 1.064538 0.110318
0.670092 1.064922 0.106658
0.670317 1.065280 0.102992
0.670555 1.065659 0.099326
0.670796 1.066042 0.095658
0.671042 1.066434 0.091987
0.671268 1.066793 0.088312
0.671506 1.067170 0.084635
0.671745 1.067550 0.080956
0.671951 1.067878 0.077270
0.672118 1.068143 0.073578
0.672280 1.068400 0.069883
0.672434 1.068646 0.066186
0.672553 1.068833 0.062484
0.672629 1.068955 0.058777
0.672705 1.069075 0.055069
0.672813 1.069247 0.051363
0.672942 1.069452 0.047657
0.673075 1.069664 0.043949
0.673214 1.069885 0.040241
0.673349 1.070099 0.036531
0.673460 1.070276 0.032818
0.673513 1.070361 0.029102
0.673521 1.070373 0.025383
0.673542 1.070406 0.021664
0.673585 1.070474 0.017946
0.673624 1.070536 0.014228
0.673663 1.070598 0.010509
0.673771 1.070770 0.006790
0.673945 1.071046 0.003070
0.674125 1.071333 -0.000652
0.674288 1.071591 -0.004375
0.674421 1.071803 -0.008100
0.674498 1.071925 -0.011825
0.674534 1.071982 -0.015551
0.674570 1.072040 -0.019277
0.674602 1.072090 -0.023003
0.674608 1.072100 -0.026728
0.674566 1.072033 -0.030451
0.674487 1.071908 -0.034172
0.674383 1.071742 -0.037891
0.674265 1.071555 -0.041607
0.674157 1.071384 -0.045323
0.674087 1.071273 -0.049041
0.674117 1.071319 -0.052765
0.674271 1.071565 -0.056501
0.674475 1.071889 -0.060242
0.674615 1.072111 -0.063980
0.674695 1.072238 -0.067713
0.674752 1.072329 -0.071445
0.674797 1.072401 -0.075176
0.674794 1.072396 -0.078901
0.674730 1.072295 -0.082620
0.674638 1.072148 -0.086334
0.674566 1.072034 -0.090050
0.674536 1.071985 -0.093770
0.674518 1.071958 -0.097492
0.674513 1.071948 -0.101216
0.674547 1.072003 -0.104946
0.674642 1.072154 -0.108686
0.674759 1.072340 -0.112431
0.674885 1.072541 -0.116179
0.675003 1.072728 -0.119926
0.675108 1.072895 -0.123673
0.675215 1.073065 -0.127421
0.675330 1.073248 -0.131172
0.675445 1.073430 -0.134924
0.675516 1.073544 -0.138668
0.675558 1.073610 -0.142407
0.675609 1.073692 -0.146149
0.675689 1.073818 -0.149897
0.675778 1.073959 -0.153648
0.675894 1.074143 -0.157407
0.676039 1.074374 -0.161174
0.676219 1.074661 -0.164951
0.676421 1.074982 -0.168735
0.676625 1.075306 -0.172522
0.676791 1.075570 -0.176302
0.676937 1.075801 -0.180078
0.677097 1.076055 -0.183859
0.677255 1.076307 -0.187642
0.677356 1.076468 -0.191410
0.677381 1.076507 -0.195158
0.677372 1.076492 -0.198895
0.677390 1.076522 -0.202641
0.677460 1.076632 -0.206403
0.677597 1.076850 -0.210186
0.677756 1.077102 -0.213978
0.677936 1.077389 -0.217778
0.678067 1.077598 -0.221565
0.678210 1.077824 -0.225357
0.678289 1.077951 -0.229128
0.678289 1.077950 -0.232874
0.678257 1.077899 -0.236608
0.678245 1.077880 -0.240349
0.678237 1.077867 -0.244091
0.678220 1.077840 -0.247830
0.678121 1.077683 -0.251539
0.677977 1.077454 -0.255229
0.677880 1.077300 -0.258936
0.677899 1.077329 -0.262686
0.677926 1.077373 -0.266440
0.677904 1.077338 -0.270175
0.677906 1.077342 -0.273919
0.677955 1.077420 -0.277683
0.678178 1.077774 -0.281519
0.678361 1.078064 -0.285340
0.678456 1.078215 -0.289126
0.678237 1.077868 -0.292779
0.678578 1.078409 -0.296673
0.678842 1.078828 -0.300537
0.679331 1.079605 -0.304504
0.680366 1.081251 -0.308725
0.681084 1.082391 -0.312812
0.680909 1.082114 -0.316492
0.680281 1.081116 -0.319956
0.680074 1.080786 -0.323614
0.679811 1.080369 -0.327243
0.679462 1.079814 -0.330827
0.678931 1.078970 -0.334317
0.678355 1.078055 -0.337779
0.677887 1.077311 -0.341289
0.677471 1.076650 -0.344821
0.677083 1.076034 -0.348362
0.676625 1.075306 -0.351863
0.676038 1.074372 -0.355291
0.675816 1.074020 -0.358906
0.676869 1.075693 -0.363202
0.680103 1.080833 -0.368694
0.682896 1.085272 -0.373979
0.684155 1.087272 -0.378446
0.684652 1.088062 -0.382501
0.685163 1.088874 -0.386570
0.685980 1.090172 -0.390819
0.686826 1.091516 -0.395093
0.687628 1.092792 -0.399352
0.688179 1.093668 -0.403472
0.688901 1.094815 -0.407700
0.690170 1.096831 -0.412261
0.659456 1.042901 0.484938
0.659495 1.042963 0.481343
0.659468 1.042920 0.477699
0.659316 1.042679 0.473966
0.659143 1.042406 0.470220
0.659010 1.042196 0.466504
0.658906 1.042031 0.462810
0.658751 1.041787 0.459081
0.658562 1.041487 0.455330
0.658383 1.041205 0.451589
0.658249 1.040992 0.447880
0.658148 1.040833 0.444195
0.658054 1.040685 0.440516
0.657952 1.040523 0.436832
0.657828 1.040326 0.433134
0.657679 1.040091 0.429423
0.657504 1.039814 0.425695
0.657369 1.039601 0.421996
0.657315 1.039516 0.418349
0.657325 1.039531 0.414744
0.657309 1.039505 0.411121
0.657279 1.039458 0.407491
0.657274 1.039451 0.403876
0.657279 1.039459 0.400268
0.657307 1.039502 0.396673
0.657422 1.039684 0.393130
0.657603 1.039971 0.389625
0.657788 1.040263 0.386119
0.657954 1.040526 0.382602
0.658149 1.040834 0.379098
0.658399 1.041229 0.375624
0.658711 1.041723 0.372183
0.659051 1.042261 0.368754
0.659373 1.042771 0.365311
0.659648 1.043206 0.361839
0.659875 1.043564 0.358337
0.660067 1.043867 0.354814
0.660272 1.044192 0.351296
0.660507 1.044563 0.347792
0.660762 1.044967 0.344295
0.661003 1.045347 0.340788
0.661215 1.045684 0.337265
0.661405 1.045984 0.333727
0.661608 1.046304 0.330194
0.661836 1.046665 0.326671
0.662016 1.046950 0.323122
0.662146 1.047155 0.319547
0.662267 1.047347 0.315966
0.662368 1.047506 0.312375
0.662440 1.047620 0.308769
0.662497 1.047711 0.305155
0.662578 1.047838 0.301551
0.662721 1.048065 0.297975
0.662921 1.048380 0.294422
0.663112 1.048684 0.290863
0.663287 1.048960 0.287295
0.663515 1.049321 0.283748
0.663815 1.049794 0.280229
0.664186 1.050382 0.276736
0.664566 1.050983 0.273242
0.664932 1.051561 0.269739
0.665339 1.052204 0.266248
0.665767 1.052881 0.262761
0.666113 1.053430 0.259237
0.666422 1.053918 0.255696
0.666798 1.054512 0.252176
0.667196 1.055142 0.248660
0.667486 1.055601 0.245101
0.667757 1.056029 0.241531
0.668092 1.056558 0.237981
0.668479 1.057170 0.234445
0.668886 1.057815 0.230913
0.669231 1.058361 0.227354
0.669526 1.058827 0.223776
0.669865 1.059362 0.220208
0.670229 1.059938 0.216645
0.670503 1.060372 0.213049
0.670754 1.060768 0.209443
0.671055 1.061244 0.205849
0.671328 1.061676 0.202244
0.671495 1.061941 0.198605
0.671558 1.062040 0.194933
0.671581 1.062076 0.191250
0.671616 1.062132 0.187569
0.671671 1.062219 0.183894
0.671725 1.062304 0.180217
0.671744 1.062335 0.176531
0.671720 1.062296 0.172834
0.671673 1.062222 0.169131
0.671611 1.062124 0.165425
0.671544 1.062017 0.161718
0.671514 1.061970 0.158021
0.671553 1.062032 0.154340
0.671638 1.062166 0.150669
0.671724 1.062302 0.146997
0.671791 1.062408 0.143321
0.671877 1.062545 0.139647
0.672002 1.062742 0.135980
0.672141 1.062962 0.132315
0.672259 1.063149 0.128644
0.672383 1.063344 0.124973
0.672533 1.063581 0.121306
0.672703 1.063851 0.117640
0.672911 1.064180 0.113979
0.673180 1.064605 0.110325
0.673461 1.065050 0.106671
0.673708 1.065440 0.103008
0.673943 1.065812 0.099340
0.674191 1.066204 0.095672
0.674443 1.066603 0.092002
0.674671 1.066963 0.088326
0.674908 1.067338 0.084648
0.675142 1.067708 0.080968
0.675341 1.068022 0.077281
0.675509 1.068288 0.073588
0.675682 1.068562 0.069894
0.675850 1.068828 0.066198
0.675977 1.069028 0.062496
0.676059 1.069158 0.058788
0.676148 1.069299 0.055081
0.676263 1.069481 0.051374
0.676399 1.069696 0.047668
0.676557 1.069946 0.043961
0.676707 1.070182 0.040252
0.676856 1.070418 0.036542
0.676977 1.070609 0.032828
0.677035 1.070701 0.029111
0.677056 1.070735 0.025392
0.677066 1.070751 0.021671
0.677096 1.070798 0.017952
0.677134 1.070858 0.014232
0.677181 1.070933 0.010512
0.677281 1.071090 0.006792
0.677431 1.071328 0.003071
0.677603 1.071601 -0.000652
0.677792 1.071899 -0.004376
0.677967 1.072175 -0.008103
0.678084 1.072360 -0.011830
0.678146 1.072459 -0.015558
0.678203 1.072549 -0.019286
0.678246 1.072617 -0.023014
0.678243 1.072612 -0.026741
0.678166 1.072490 -0.030464
0.678070 1.072338 -0.034186
0.677963 1.072169 -0.037906
0.677843 1.071980 -0.041624
0.677738 1.071813 -0.045341
0.677667 1.071701 -0.049060
0.677732 1.071804 -0.052789
0.677923 1.072106 -0.056529
0.678123 1.072422 -0.060272
0.678266 1.072649 -0.064012
0.678340 1.072766 -0.067746
0.678415 1.072885 -0.071482
0.678462 1.072959 -0.075215
0.678455 1.072948 -0.078942
0.678384 1.072835 -0.082661
0.678287 1.072682 -0.086377
0.678209 1.072558 -0.090094
0.678187 1.072523 -0.093817
0.678163 1.072485 -0.097540
0.678161 1.072482 -0.101267
0.678192 1.072531 -0.104998
0.678307 1.072714 -0.108743
0.678434 1.072914 -0.112491
0.678557 1.073109 -0.116240
0.678703 1.073340 -0.119995
0.678800 1.073493 -0.123742
0.678921 1.073685 -0.127495
0.679016 1.073834 -0.131243
0.679142 1.074033 -0.135000
0.679195 1.074117 -0.138742
0.679236 1.074182 -0.142483
0.679308 1.074296 -0.146231
0.679415 1.074465 -0.149987
0.679510 1.074615 -0.153742
0.679614 1.074780 -0.157500
0.679736 1.074974 -0.161264
0.679894 1.075223 -0.165037
0.680146 1.075621 -0.168835
0.680382 1.075994 -0.172633
0.680561 1.076279 -0.176418
0.680723 1.076535 -0.180200
0.680880 1.076783 -0.183983
0.681035 1.077027 -0.187767
0.681142 1.077197 -0.191540
0.681168 1.077239 -0.195290
0.681182 1.077261 -0.199037
0.681240 1.077352 -0.202798
0.681329 1.077492 -0.206568
0.681485 1.077740 -0.210360
0.681670 1.078032 -0.214163
0.681816 1.078263 -0.217955
0.681933 1.078448 -0.221740
0.682065 1.078656 -0.225530
0.682148 1.078788 -0.229306
0.682193 1.078859 -0.233070
0.682203 1.078874 -0.236822
0.682245 1.078942 -0.240586
0.682254 1.078956 -0.244338
0.682205 1.078879 -0.248069
0.682126 1.078753 -0.251788
0.682082 1.078684 -0.255520
0.682067 1.078659 -0.259262
0.681800 1.078238 -0.262908
0.681979 1.078520 -0.266724
0.682043 1.078621 -0.270497
0.682179 1.078836 -0.274299
0.682287 1.079008 -0.278092
0.682442 1.079253 -0.281905
0.682548 1.079421 -0.285699
0.682530 1.079391 -0.289442
0.682385 1.079162 -0.293130
0.682665 1.079605 -0.297002
0.682824 1.079857 -0.300823
0.683194 1.080442 -0.304740
0.683983 1.081689 -0.308850
0.684557 1.082597 -0.312871
0.684369 1.082300 -0.316546
0.683706 1.081252 -0.319996
0.683360 1.080705 -0.323590
0.683015 1.080159 -0.327179
0.682671 1.079615 -0.330766
0.682223 1.078906 -0.334297
0.681673 1.078036 -0.337773
0.681143 1.077198 -0.341254
0.680672 1.076454 -0.344758
0.680309 1.075879 -0.348312
0.679930 1.075280 -0.351854
0.679381 1.074412 -0.355304
0.679016 1.073835 -0.358844
0.679591 1.074744 -0.362882
0.682136 1.078769 -0.367989
0.684939 1.083201 -0.373265
0.686464 1.085613 -0.377868
0.687091 1.086605 -0.381989
0.687540 1.087315 -0.386017
0.688230 1.088406 -0.390186
0.689048 1.089699 -0.394436
0.689833 1.090941 -0.398676
0.690318 1.091708 -0.402749
0.690962 1.092726 -0.406922
0.693145 1.096179 -0.412016
0.662199 1.042149 0.484588
0.662242 1.042217 0.480999
0.662213 1.042171 0.477356
0.662056 1.041924 0.473623
0.661866 1.041625 0.469867
0.661729 1.041409 0.466152
0.661617 1.041233 0.462455
0.661460 1.040986 0.458728
0.661266 1.040681 0.454978
0.661081 1.040389 0.451235
0.660938 1.040164 0.447524
0.660833 1.039999 0.443839
0.660740 1.039853 0.440164
0.660628 1.039676 0.436476
0.660491 1.039461 0.432774
0.660333 1.039212 0.429060
0.660143 1.038913 0.425326
0.660008 1.038700 0.421630
0.659966 1.038634 0.417995
0.659974 1.038648 0.414391
0.659962 1.038629 0.410775
0.659932 1.038581 0.407147
0.659924 1.038568 0.403534
0.659928 1.038575 0.399927
0.659957 1.038621 0.396336
0.660076 1.038807 0.392798
0.660270 1.039114 0.389303
0.660462 1.039416 0.385805
0.660650 1.039711 0.382302
0.660861 1.040044 0.378811
0.661123 1.040456 0.375346
0.661441 1.040956 0.371909
0.661795 1.041513 0.368489
0.662136 1.042050 0.365058
0.662427 1.042507 0.361596
0.662666 1.042884 0.358104
0.662876 1.043214 0.354592
0.663082 1.043539 0.351077
0.663313 1.043902 0.347572
0.663579 1.044320 0.344082
0.663852 1.044750 0.340594
0.664087 1.045120 0.337083
0.664282 1.045428 0.333550
0.664494 1.045761 0.330022
0.664721 1.046119 0.326501
0.664934 1.046453 0.322969
0.665075 1.046675 0.319401
0.665204 1.046877 0.315825
0.665312 1.047049 0.312238
0.665386 1.047165 0.308635
0.665445 1.047257 0.305023
0.665524 1.047382 0.301420
0.665672 1.047615 0.297847
0.665879 1.047940 0.294298
0.666081 1.048258 0.290745
0.666269 1.048555 0.287184
0.666506 1.048927 0.283642
0.666821 1.049424 0.280130
0.667215 1.050043 0.276647
0.667635 1.050704 0.273170
0.668033 1.051330 0.269680
0.668432 1.051958 0.266186
0.668828 1.052582 0.262686
0.669154 1.053095 0.259155
0.669456 1.053570 0.255611
0.669835 1.054167 0.252093
0.670251 1.054821 0.248584
0.670591 1.055356 0.245044
0.670919 1.055871 0.241495
0.671287 1.056452 0.237957
0.671687 1.057082 0.234426
0.672116 1.057756 0.230900
0.672505 1.058368 0.227356
0.672880 1.058958 0.223803
0.673274 1.059578 0.220253
0.673637 1.060150 0.216688
0.673906 1.060574 0.213089
0.674160 1.060973 0.209483
0.674445 1.061422 0.205884
0.674696 1.061817 0.202271
0.674853 1.062064 0.198628
0.674916 1.062163 0.194956
0.674940 1.062201 0.191272
0.674975 1.062256 0.187591
0.675031 1.062344 0.183915
0.675089 1.062434 0.180239
0.675110 1.062468 0.176554
0.675084 1.062427 0.172855
0.675033 1.062347 0.169151
0.674964 1.062238 0.165443
0.674893 1.062126 0.161735
0.674863 1.062079 0.158037
0.674904 1.062144 0.154356
0.674989 1.062278 0.150685
0.675073 1.062410 0.147012
0.675130 1.062500 0.143333
0.675216 1.062634 0.139659
0.675360 1.062861 0.135995
0.675526 1.063123 0.132335
0.675654 1.063323 0.128665
0.675780 1.063523 0.124994
0.675941 1.063775 0.121328
0.676112 1.064045 0.117661
0.676336 1.064397 0.114002
0.676623 1.064849 0.110350
0.676922 1.065320 0.106698
0.677171 1.065712 0.103034
0.677398 1.066068 0.099364
0.677638 1.066446 0.095694
0.677889 1.066842 0.092023
0.678122 1.067208 0.088346
0.678395 1.067638 0.084672
0.678650 1.068040 0.080993
0.678869 1.068384 0.077307
0.679056 1.068679 0.073615
0.679234 1.068958 0.069920
0.679411 1.069237 0.066223
0.679533 1.069429 0.062519
0.679638 1.069594 0.058812
0.679763 1.069790 0.055106
0.679906 1.070016 0.051400
0.680047 1.070237 0.047692
0.680201 1.070481 0.043983
0.680397 1.070789 0.040275
0.680567 1.071056 0.036564
0.680698 1.071262 0.032848
0.680751 1.071345 0.029128
0.680760 1.071360 0.025406
0.680761 1.071360 0.021684
0.680795 1.071415 0.017962
0.680830 1.071471 0.014240
0.680836 1.071479 0.010517
0.680935 1.071635 0.006795
0.681089 1.071878 0.003072
0.681276 1.072171 -0.000652
0.681443 1.072434 -0.004379
0.681692 1.072827 -0.008108
0.681867 1.073102 -0.011838
0.681928 1.073197 -0.015568
0.681992 1.073299 -0.019299
0.682038 1.073371 -0.023030
0.682032 1.073361 -0.026759
0.681969 1.073262 -0.030486
0.681873 1.073111 -0.034210
0.681720 1.072871 -0.037931
0.681594 1.072673 -0.041651
0.681492 1.072511 -0.045371
0.681466 1.072471 -0.049096
0.681521 1.072557 -0.052826
0.681732 1.072889 -0.056571
0.681905 1.073162 -0.060314
0.682057 1.073401 -0.064057
0.682151 1.073548 -0.067796
0.682219 1.073656 -0.071533
0.682223 1.073663 -0.075264
0.682243 1.073694 -0.078997
0.682162 1.073567 -0.082718
0.682087 1.073448 -0.086439
0.682038 1.073371 -0.090162
0.682014 1.073333 -0.093888
0.682001 1.073313 -0.097616
0.681999 1.073310 -0.101345
0.682005 1.073319 -0.105075
0.682104 1.073476 -0.108820
0.682268 1.073733 -0.112577
0.682422 1.073975 -0.116334
0.682553 1.074181 -0.120089
0.682666 1.074359 -0.123842
0.682780 1.074539 -0.127596
0.682893 1.074717 -0.131351
0.682990 1.074869 -0.135105
0.683030 1.074932 -0.138848
0.683089 1.075026 -0.142595
0.683169 1.075151 -0.146347
0.683257 1.075290 -0.150102
0.683370 1.075468 -0.153864
0.683485 1.075648 -0.157627
0.683634 1.075883 -0.161400
0.683783 1.076118 -0.165174
0.684037 1.076517 -0.168976
0.684258 1.076864 -0.172772
0.684466 1.077192 -0.176568
0.684586 1.077380 -0.180342
0.684726 1.077601 -0.184123
0.684868 1.077824 -0.187906
0.684970 1.077985 -0.191680
0.685003 1.078038 -0.195435
0.685022 1.078066 -0.199186
0.685058 1.078123 -0.202943
0.685161 1.078285 -0.206720
0.685319 1.078534 -0.210515
0.685511 1.078837 -0.214323
0.685678 1.079099 -0.218124
0.685807 1.079302 -0.221915
0.685930 1.079496 -0.225706
0.686046 1.079679 -0.229496
0.686098 1.079760 -0.233265
0.686113 1.079784 -0.237022
0.686126 1.079805 -0.240778
0.686138 1.079824 -0.244534
0.686131 1.079812 -0.248284
0.686082 1.079736 -0.252018
0.686002 1.079609 -0.255739
0.685974 1.079566 -0.259480
0.685971 1.079560 -0.263230
0.685991 1.079593 -0.266989
0.686038 1.079667 -0.270759
0.686116 1.079788 -0.274541
0.686246 1.079993 -0.278346
0.686460 1.080330 -0.282186
0.686678 1.080674 -0.286031
0.686759 1.080800 -0.289820
0.686699 1.080706 -0.293550
0.686916 1.081048 -0.297399
0.687079 1.081304 -0.301226
0.687298 1.081649 -0.305081
0.687742 1.082347 -0.309038
0.688221 1.083102 -0.313017
0.688058 1.082845 -0.316705
0.687437 1.081869 -0.320179
0.687058 1.081272 -0.323759
0.686614 1.080572 -0.327304
0.686188 1.079902 -0.330854
0.685799 1.079289 -0.334416
0.685383 1.078636 -0.337961
0.684910 1.077891 -0.341473
0.684440 1.077152 -0.344982
0.684079 1.076583 -0.348540
0.683768 1.076094 -0.352121
0.683281 1.075327 -0.355606
0.682900 1.074727 -0.359142
0.683160 1.075137 -0.363015
0.685136 1.078246 -0.367811
0.687902 1.082600 -0.373058
0.689693 1.085419 -0.377801
0.690287 1.086352 -0.381900
0.690717 1.087029 -0.385915
0.691331 1.087996 -0.390039
0.692055 1.089136 -0.394232
0.692823 1.090344 -0.398457
0.693245 1.091009 -0.402491
0.693783 1.091856 -0.406597
0.665166 1.041755 0.484405
0.665211 1.041825 0.480818
0.665183 1.041781 0.477177
0.665020 1.041526 0.473442
0.664821 1.041214 0.469682
0.664664 1.040968 0.465954
0.664526 1.040752 0.462241
0.664357 1.040488 0.458509
0.664172 1.040197 0.454766
0.663987 1.039908 0.451027
0.663840 1.039678 0.447314
0.663733 1.039510 0.443630
0.663634 1.039355 0.439953
0.663514 1.039167 0.436262
0.663381 1.038960 0.432565
0.663239 1.038737 0.428864
0.663058 1.038453 0.425138
0.662894 1.038196 0.421426
0.662825 1.038088 0.417775
0.662831 1.038097 0.414171
0.662823 1.038086 0.410560
0.662796 1.038043 0.406936
0.662790 1.038033 0.403326
0.662794 1.038039 0.399721
0.662829 1.038094 0.396135
0.662949 1.038283 0.392600
0.663152 1.038601 0.389111
0.663354 1.038917 0.385620
0.663561 1.039241 0.382129
0.663794 1.039607 0.378651
0.664077 1.040049 0.375199
0.664411 1.040573 0.371772
0.664786 1.041159 0.368364
0.665145 1.041722 0.364944
0.665455 1.042207 0.361492
0.665707 1.042602 0.358007
0.665926 1.042945 0.354500
0.666141 1.043282 0.350990
0.666380 1.043656 0.347490
0.666661 1.044096 0.344008
0.666953 1.044554 0.340530
0.667195 1.044933 0.337023
0.667399 1.045253 0.333494
0.667636 1.045623 0.329979
0.667885 1.046012 0.326467
0.668098 1.046346 0.322936
0.668257 1.046595 0.319376
0.668391 1.046805 0.315803
0.668493 1.046966 0.312214
0.668564 1.047077 0.308609
0.668621 1.047166 0.304996
0.668701 1.047291 0.301394
0.668852 1.047527 0.297822
0.669054 1.047845 0.294272
0.669245 1.048143 0.290714
0.669434 1.048440 0.287153
0.669675 1.048817 0.283612
0.670000 1.049326 0.280104
0.670411 1.049969 0.276627
0.670850 1.050657 0.273158
0.671264 1.051305 0.269673
0.671659 1.051923 0.266177
0.672032 1.052508 0.262668
0.672354 1.053012 0.259135
0.672662 1.053495 0.255593
0.673024 1.054062 0.252068
0.673427 1.054693 0.248554
0.673823 1.055313 0.245034
0.674196 1.055898 0.241501
0.674569 1.056481 0.237963
0.674972 1.057112 0.234432
0.675409 1.057797 0.230909
0.675860 1.058503 0.227385
0.676315 1.059215 0.223858
0.676762 1.059916 0.220323
0.677135 1.060501 0.216760
0.677428 1.060960 0.213167
0.677721 1.061417 0.209571
0.678015 1.061879 0.205972
0.678254 1.062252 0.202354
0.678395 1.062474 0.198705
0.678461 1.062576 0.195032
0.678500 1.062637 0.191351
0.678539 1.062700 0.187669
0.678578 1.062761 0.183988
0.678642 1.062861 0.180312
0.678644 1.062863 0.176619
0.678626 1.062835 0.172922
0.678581 1.062764 0.169217
0.678480 1.062606 0.165500
0.678410 1.062497 0.161791
0.678389 1.062464 0.158095
0.678429 1.062527 0.154412
0.678510 1.062654 0.150738
0.678604 1.062801 0.147066
0.678683 1.062925 0.143390
0.678804 1.063115 0.139722
0.678974 1.063380 0.136062
0.679148 1.063653 0.132401
0.679292 1.063878 0.128733
0.679433 1.064100 0.125062
0.679613 1.064381 0.121397
0.679754 1.064602 0.117723
0.679979 1.064954 0.114062
0.680274 1.065416 0.110409
0.680581 1.065897 0.106755
0.680812 1.066259 0.103087
0.681041 1.066618 0.099415
0.681294 1.067014 0.095745
0.681532 1.067386 0.092070
0.681786 1.067785 0.088394
0.682106 1.068286 0.084723
0.682424 1.068783 0.081049
0.682710 1.069231 0.077368
0.682895 1.069521 0.073673
0.683058 1.069777 0.069973
0.683249 1.070076 0.066275
0.683375 1.070273 0.062568
0.683542 1.070534 0.058864
0.683721 1.070815 0.055159
0.683857 1.071028 0.051448
0.683989 1.071234 0.047736
0.684157 1.071497 0.044025
0.684353 1.071804 0.040313
0.684553 1.072118 0.036600
0.684707 1.072359 0.032882
0.684783 1.072478 0.029159
0.684763 1.072447 0.025432
0.684775 1.072466 0.021706
0.684828 1.072549 0.017981
0.684920 1.072692 0.014256
0.685054 1.072902 0.010531
0.685174 1.073091 0.006805
0.685309 1.073303 0.003077
0.685429 1.073489 -0.000653
0.685605 1.073766 -0.004384
0.685810 1.074087 -0.008117
0.685879 1.074194 -0.011851
0.685923 1.074263 -0.015584
0.685980 1.074353 -0.019318
0.686013 1.074404 -0.023052
0.686008 1.074396 -0.026785
0.685936 1.074283 -0.030515
0.685828 1.074114 -0.034242
0.685700 1.073915 -0.037967
0.685556 1.073689 -0.041690
0.685428 1.073488 -0.045412
0.685376 1.073407 -0.049139
0.685461 1.073540 -0.052875
0.685656 1.073845 -0.056621
0.685841 1.074135 -0.060368
0.685969 1.074335 -0.064113
0.686050 1.074462 -0.067853
0.686111 1.074557 -0.071593
0.686145 1.074612 -0.075331
0.686150 1.074619 -0.079065
0.686061 1.074480 -0.082788
0.685969 1.074335 -0.086510
0.685897 1.074223 -0.090233
0.685873 1.074185 -0.093963
0.685864 1.074171 -0.097694
0.685855 1.074157 -0.101425
0.685880 1.074197 -0.105161
0.685996 1.074378 -0.108912
0.686181 1.074668 -0.112675
0.686344 1.074923 -0.116437
0.686479 1.075134 -0.120195
0.686594 1.075315 -0.123952
0.686717 1.075507 -0.127711
0.686819 1.075667 -0.131467
0.686907 1.075805 -0.135222
0.686965 1.075895 -0.138972
0.687015 1.075973 -0.142721
0.687086 1.076085 -0.146474
0.687189 1.076246 -0.150236
0.687304 1.076426 -0.154001
0.687442 1.076643 -0.157773
0.687593 1.076879 -0.161549
0.687759 1.077139 -0.165331
0.687964 1.077460 -0.169124
0.688195 1.077821 -0.172926
0.688380 1.078112 -0.176718
0.688493 1.078288 -0.180494
0.688608 1.078468 -0.184271
0.688744 1.078681 -0.188056
0.688838 1.078830 -0.191830
0.688869 1.078877 -0.195587
0.688872 1.078882 -0.199337
0.688916 1.078950 -0.203098
0.689025 1.079121 -0.206880
0.689189 1.079378 -0.210680
0.689367 1.079658 -0.214486
0.689527 1.079908 -0.218288
0.689681 1.080148 -0.222089
0.689844 1.080405 -0.225896
0.689958 1.080583 -0.229688
0.689997 1.080644 -0.233456
0.690009 1.080662 -0.237214
0.690032 1.080698 -0.240977
0.690058 1.080739 -0.244742
0.690061 1.080744 -0.248498
0.690019 1.080678 -0.252238
0.689942 1.080558 -0.255964
0.689892 1.080479 -0.259700
0.689893 1.080481 -0.263454
0.689941 1.080557 -0.267228
0.690008 1.080662 -0.271008
0.690082 1.080778 -0.274793
0.690217 1.080989 -0.278602
0.690458 1.081365 -0.282457
0.690724 1.081783 -0.286324
0.690882 1.082031 -0.290150
0.690880 1.082026 -0.293908
0.691087 1.082352 -0.297757
0.691267 1.082633 -0.301596
0.691480 1.082967 -0.305452
0.691775 1.083428 -0.309347
0.692048 1.083856 -0.313235
0.691842 1.083534 -0.316907
0.691269 1.082636 -0.320406
0.690911 1.082075 -0.324000
0.690397 1.081270 -0.327516
0.689894 1.080483 -0.331031
0.689519 1.079896 -0.334604
0.689231 1.079444 -0.338215
0.688871 1.078881 -0.341787
0.688444 1.078212 -0.345321
0.688145 1.077743 -0.348916
0.687855 1.077289 -0.352512
0.687435 1.076631 -0.356038
0.687046 1.076022 -0.359575
0.687032 1.076000 -0.363306
0.688639 1.078518 -0.367904
0.691288 1.082665 -0.373080
0.693244 1.085729 -0.377909
0.693889 1.086740 -0.382036
0.694416 1.087564 -0.386105
0.695110 1.088652 -0.390274
0.695864 1.089832 -0.394484
0.696728 1.091186 -0.398765
0.697319 1.092112 -0.402898
0.698704 1.094281 -0.407501
0.668354 1.041708 0.484383
0.668402 1.041783 0.480798
0.668372 1.041737 0.477157
0.668201 1.041470 0.473416
0.667992 1.041145 0.469651
0.667824 1.040882 0.465916
0.667672 1.040645 0.462194
0.667496 1.040371 0.458457
0.667314 1.040087 0.454718
0.667134 1.039807 0.450983
0.666978 1.039564 0.447266
0.666862 1.039383 0.443576
0.666753 1.039213 0.439893
0.666625 1.039014 0.436198
0.666491 1.038806 0.432501
0.666361 1.038602 0.428808
0.666184 1.038327 0.425086
0.666004 1.038047 0.421365
0.665913 1.037905 0.417701
0.665914 1.037906 0.414095
0.665904 1.037890 0.410483
0.665877 1.037847 0.406860
0.665875 1.037844 0.403252
0.665883 1.037858 0.399651
0.665919 1.037913 0.396066
0.666045 1.038109 0.392534
0.666261 1.038446 0.389053
0.666477 1.038783 0.385570
0.666692 1.039119 0.382084
0.666939 1.039503 0.378614
0.667233 1.039962 0.375167
0.667585 1.040510 0.371750
0.667971 1.041112 0.368347
0.668344 1.041693 0.364934
0.668664 1.042192 0.361487
0.668928 1.042603 0.358007
0.669155 1.042957 0.354505
0.669377 1.043303 0.350997
0.669620 1.043682 0.347498
0.669916 1.044144 0.344024
0.670224 1.044624 0.340553
0.670473 1.045011 0.337048
0.670686 1.045343 0.333523
0.670943 1.045744 0.330017
0.671201 1.046146 0.326509
0.671417 1.046483 0.322978
0.671589 1.046751 0.319424
0.671729 1.046969 0.315852
0.671827 1.047122 0.312260
0.671894 1.047226 0.308653
0.671945 1.047306 0.305037
0.672026 1.047432 0.301434
0.672183 1.047677 0.297865
0.672382 1.047987 0.294312
0.672569 1.048278 0.290751
0.672761 1.048577 0.287190
0.673001 1.048952 0.283649
0.673329 1.049463 0.280140
0.673746 1.050113 0.276665
0.674193 1.050810 0.273197
0.674618 1.051472 0.269716
0.675018 1.052096 0.266220
0.675390 1.052675 0.262709
0.675727 1.053200 0.259181
0.676046 1.053698 0.255642
0.676388 1.054231 0.252108
0.676788 1.054854 0.248592
0.677215 1.055519 0.245082
0.677616 1.056144 0.241557
0.677977 1.056708 0.238014
0.678361 1.057306 0.234475
0.678798 1.057987 0.230950
0.679289 1.058753 0.227439
0.679809 1.059563 0.223931
0.680305 1.060335 0.220410
0.680696 1.060945 0.216850
0.681013 1.061440 0.213263
0.681347 1.061960 0.209678
0.681676 1.062473 0.206088
0.681947 1.062895 0.202476
0.682080 1.063103 0.198822
0.682167 1.063238 0.195153
0.682214 1.063311 0.191472
0.682255 1.063376 0.187789
0.682307 1.063456 0.184108
0.682335 1.063499 0.180420
0.682342 1.063511 0.176727
0.682333 1.063496 0.173029
0.682258 1.063379 0.169315
0.682166 1.063236 0.165598
0.682083 1.063106 0.161884
0.682059 1.063070 0.158185
0.682099 1.063132 0.154500
0.682192 1.063277 0.150827
0.682296 1.063438 0.147154
0.682422 1.063635 0.143486
0.682566 1.063859 0.139820
0.682752 1.064150 0.136161
0.682912 1.064399 0.132494
0.683066 1.064640 0.128825
0.683242 1.064913 0.125158
0.683401 1.065161 0.121486
0.683559 1.065407 0.117812
0.683780 1.065753 0.114147
0.684062 1.066192 0.110490
0.684371 1.066673 0.106833
0.684616 1.067055 0.103164
0.684888 1.067479 0.099496
0.685155 1.067895 0.095824
0.685424 1.068315 0.092150
0.685688 1.068725 0.088472
0.686061 1.069307 0.084804
0.686411 1.069853 0.081130
0.686697 1.070299 0.077445
0.686890 1.070600 0.073747
0.687074 1.070886 0.070046
0.687279 1.071206 0.066345
0.687436 1.071450 0.062637
0.687591 1.071692 0.058928
0.687770 1.071970 0.055218
0.687936 1.072230 0.051506
0.688092 1.072473 0.047791
0.688271 1.072752 0.044076
0.688475 1.073069 0.040361
0.688680 1.073388 0.036643
0.688840 1.073638 0.032921
0.688906 1.073741 0.029194
0.688895 1.073725 0.025462
0.688899 1.073730 0.021732
0.688959 1.073825 0.018003
0.689043 1.073955 0.014273
0.689129 1.074089 0.010543
0.689274 1.074314 0.006812
0.689453 1.074593 0.003080
0.689624 1.074860 -0.000654
0.689789 1.075117 -0.004389
0.689925 1.075330 -0.008127
0.690012 1.075466 -0.011865
0.690055 1.075532 -0.015602
0.690084 1.075577 -0.019340
0.690114 1.075624 -0.023078
0.690118 1.075630 -0.026816
0.690055 1.075533 -0.030551
0.689949 1.075367 -0.034282
0.689827 1.075178 -0.038012
0.689686 1.074958 -0.041739
0.689540 1.074729 -0.045465
0.689449 1.074587 -0.049193
0.689484 1.074642 -0.052929
0.689643 1.074890 -0.056676
0.689851 1.075215 -0.060429
0.689993 1.075436 -0.064178
0.690078 1.075569 -0.067923
0.690129 1.075647 -0.071666
0.690150 1.075681 -0.075406
0.690129 1.075647 -0.079141
0.690058 1.075538 -0.082870
0.689962 1.075388 -0.086595
0.689895 1.075284 -0.090322
0.689883 1.075265 -0.094057
0.689876 1.075253 -0.097792
0.689876 1.075253 -0.101528
0.689905 1.075299 -0.105269
0.690014 1.075469 -0.109022
0.690200 1.075758 -0.112789
0.690396 1.076064 -0.116560
0.690546 1.076298 -0.120325
0.690670 1.076492 -0.124087
0.690777 1.076657 -0.127848
0.690874 1.076809 -0.131607
0.690957 1.076939 -0.135365
0.691015 1.077028 -0.139118
0.691060 1.077099 -0.142870
0.691122 1.077195 -0.146626
0.691213 1.077338 -0.150388
0.691327 1.077515 -0.154157
0.691480 1.077753 -0.157936
0.691645 1.078011 -0.161719
0.691794 1.078243 -0.165501
0.691966 1.078510 -0.169289
0.692165 1.078821 -0.173086
0.692330 1.079078 -0.176877
0.692440 1.079250 -0.180655
0.692570 1.079452 -0.184439
0.692702 1.079657 -0.188226
0.692796 1.079804 -0.192003
0.692827 1.079854 -0.195764
0.692823 1.079846 -0.199515
0.692859 1.079903 -0.203278
0.692962 1.080063 -0.207061
0.693118 1.080306 -0.210861
0.693274 1.080550 -0.214663
0.693433 1.080797 -0.218467
0.693621 1.081090 -0.222283
0.693815 1.081393 -0.226103
0.693919 1.081554 -0.229894
0.693931 1.081573 -0.233656
0.693924 1.081563 -0.237412
0.693940 1.081588 -0.241176
0.693963 1.081623 -0.244942
0.693957 1.081614 -0.248698
0.693897 1.081521 -0.252435
0.693812 1.081388 -0.256161
0.693767 1.081318 -0.259901
0.693800 1.081369 -0.263671
0.693854 1.081454 -0.267449
0.693925 1.081564 -0.271235
0.693992 1.081668 -0.275019
0.694127 1.081879 -0.278832
0.694370 1.082258 -0.282690
0.694641 1.082681 -0.286562
0.694820 1.082958 -0.290399
0.694824 1.082965 -0.294163
0.695137 1.083452 -0.298060
0.695383 1.083837 -0.301932
0.695606 1.084184 -0.305796
0.695868 1.084593 -0.309680
0.695894 1.084633 -0.313460
0.695609 1.084189 -0.317099
0.695069 1.083347 -0.320616
0.694714 1.082794 -0.324215
0.694244 1.082061 -0.327755
0.693741 1.081278 -0.331275
0.693390 1.080730 -0.334862
0.693156 1.080366 -0.338503
0.692835 1.079865 -0.342099
0.692418 1.079215 -0.345642
0.692147 1.078794 -0.349256
0.691935 1.078462 -0.352896
0.691549 1.077860 -0.356444
0.691176 1.077280 -0.359995
0.691079 1.077129 -0.363687
0.692261 1.078970 -0.368058
0.694563 1.082559 -0.373044
0.696493 1.085566 -0.377852
0.697441 1.087045 -0.382144
0.698233 1.088279 -0.386359
0.699177 1.089750 -0.390667
0.700098 1.091185 -0.394973
0.701064 1.092691 -0.399315
0.701729 1.093727 -0.403494
0.703502 1.096492 -0.408324
0.671612 1.041771 0.484412
0.671661 1.041847 0.480828
0.671626 1.041794 0.477183
0.671446 1.041514 0.473436
0.671228 1.041176 0.469665
0.671055 1.040907 0.465927
0.670902 1.040670 0.462205
0.670724 1.040394 0.458467
0.670538 1.040106 0.454727
0.670356 1.039824 0.450990
0.670198 1.039578 0.447271
0.670076 1.039389 0.443579
0.669958 1.039207 0.439890
0.669826 1.039002 0.436193
0.669691 1.038792 0.432496
0.669561 1.038590 0.428803
0.669386 1.038319 0.425083
0.669202 1.038033 0.421359
0.669106 1.037885 0.417693
0.669101 1.037877 0.414084
0.669086 1.037854 0.410468
0.669058 1.037810 0.406845
0.669060 1.037813 0.403240
0.669070 1.037829 0.399640
0.669106 1.037885 0.396055
0.669239 1.038091 0.392527
0.669466 1.038442 0.389052
0.669695 1.038798 0.385576
0.669916 1.039141 0.382092
0.670165 1.039528 0.378623
0.670464 1.039990 0.375178
0.670821 1.040545 0.371762
0.671217 1.041160 0.368364
0.671599 1.041751 0.364954
0.671927 1.042260 0.361511
0.672197 1.042679 0.358033
0.672429 1.043039 0.354532
0.672655 1.043390 0.351026
0.672896 1.043763 0.347525
0.673183 1.044208 0.344045
0.673485 1.044677 0.340570
0.673755 1.045096 0.337075
0.673994 1.045467 0.333562
0.674266 1.045888 0.330063
0.674528 1.046294 0.326555
0.674752 1.046643 0.323027
0.674934 1.046925 0.319477
0.675081 1.047153 0.315908
0.675187 1.047317 0.312319
0.675259 1.047429 0.308712
0.675319 1.047522 0.305100
0.675406 1.047656 0.301499
0.675571 1.047913 0.297932
0.675776 1.048230 0.294380
0.675968 1.048528 0.290820
0.676158 1.048823 0.287258
0.676398 1.049195 0.283714
0.676727 1.049707 0.280205
0.677145 1.050355 0.276729
0.677599 1.051059 0.273262
0.678035 1.051735 0.269784
0.678445 1.052370 0.266290
0.678828 1.052966 0.262782
0.679170 1.053495 0.259254
0.679485 1.053985 0.255712
0.679830 1.054519 0.252177
0.680234 1.055146 0.248661
0.680667 1.055817 0.245151
0.681078 1.056455 0.241628
0.681463 1.057052 0.238092
0.681849 1.057650 0.234552
0.682273 1.058309 0.231020
0.682773 1.059085 0.227510
0.683321 1.059934 0.224010
0.683832 1.060727 0.220492
0.684249 1.061374 0.216938
0.684589 1.061901 0.213356
0.684921 1.062417 0.209768
0.685231 1.062897 0.206170
0.685506 1.063323 0.202558
0.685685 1.063601 0.198915
0.685779 1.063748 0.195247
0.685835 1.063834 0.191566
0.685883 1.063908 0.187883
0.685919 1.063965 0.184196
0.685945 1.064005 0.180506
0.685948 1.064008 0.176809
0.685937 1.063991 0.173110
0.685890 1.063920 0.169401
0.685799 1.063778 0.165683
0.685712 1.063642 0.161966
0.685692 1.063612 0.158265
0.685735 1.063679 0.154580
0.685828 1.063823 0.150904
0.685937 1.063993 0.147231
0.686062 1.064186 0.143560
0.686219 1.064430 0.139895
0.686397 1.064705 0.136232
0.686566 1.064968 0.132565
0.686725 1.065215 0.128894
0.686903 1.065490 0.125225
0.687089 1.065779 0.121556
0.687281 1.066077 0.117886
0.687519 1.066446 0.114221
0.687830 1.066929 0.110566
0.688176 1.067466 0.106913
0.688482 1.067939 0.103249
0.688789 1.068416 0.099583
0.689099 1.068897 0.095914
0.689410 1.069379 0.092241
0.689719 1.069858 0.088565
0.690076 1.070412 0.084892
0.690428 1.070958 0.081214
0.690703 1.071385 0.077524
0.690916 1.071716 0.073824
0.691101 1.072002 0.070119
0.691293 1.072300 0.066413
0.691465 1.072567 0.062702
0.691611 1.072794 0.058988
0.691755 1.073016 0.055272
0.691925 1.073280 0.051556
0.692103 1.073556 0.047840
0.692284 1.073837 0.044121
0.692483 1.074145 0.040401
0.692690 1.074466 0.036680
0.692858 1.074727 0.032955
0.692930 1.074839 0.029223
0.692925 1.074832 0.025489
0.692946 1.074864 0.021755
0.693021 1.074980 0.018022
0.693107 1.075113 0.014289
0.693191 1.075243 0.010554
0.693345 1.075484 0.006820
0.693556 1.075811 0.003084
0.693733 1.076085 -0.000654
0.693876 1.076307 -0.004394
0.694004 1.076505 -0.008136
0.694083 1.076628 -0.011877
0.694120 1.076685 -0.015619
0.694147 1.076726 -0.019361
0.694178 1.076775 -0.023103
0.694188 1.076791 -0.026845
0.694136 1.076710 -0.030584
0.694042 1.076563 -0.034320
0.693933 1.076395 -0.038055
0.693801 1.076191 -0.041787
0.693648 1.075953 -0.045517
0.693537 1.075781 -0.049247
0.693538 1.075782 -0.052985
0.693692 1.076021 -0.056736
0.693908 1.076356 -0.060493
0.694069 1.076606 -0.064248
0.694166 1.076756 -0.067998
0.694210 1.076824 -0.071744
0.694250 1.076887 -0.075490
0.694212 1.076828 -0.079228
0.694130 1.076701 -0.082959
0.694043 1.076565 -0.086689
0.693992 1.076486 -0.090423
0.693980 1.076468 -0.094162
0.693989 1.076482 -0.097904
0.693994 1.076489 -0.101645
0.694031 1.076548 -0.105391
0.694127 1.076696 -0.109147
0.694349 1.077041 -0.112924
0.694528 1.077317 -0.116696
0.694701 1.077586 -0.120469
0.694832 1.077790 -0.124237
0.694923 1.077931 -0.127999
0.695000 1.078051 -0.131759
0.695071 1.078160 -0.135518
0.695127 1.078247 -0.139276
0.695168 1.078311 -0.143031
0.695224 1.078398 -0.146789
0.695310 1.078531 -0.150555
0.695420 1.078702 -0.154327
0.695557 1.078913 -0.158106
0.695699 1.079135 -0.161888
0.695843 1.079358 -0.165672
0.696022 1.079635 -0.169465
0.696218 1.079939 -0.173266
0.696370 1.080175 -0.177057
0.696490 1.080362 -0.180841
0.696610 1.080548 -0.184627
0.696746 1.080758 -0.188418
0.696840 1.080903 -0.192199
0.696857 1.080930 -0.195959
0.696860 1.080935 -0.199716
0.696896 1.080991 -0.203483
0.696986 1.081131 -0.207265
0.697124 1.081345 -0.211064
0.697281 1.081588 -0.214869
0.697461 1.081868 -0.218684
0.697655 1.082168 -0.222505
0.697831 1.082441 -0.226322
0.697908 1.082561 -0.230108
0.697894 1.082539 -0.233865
0.697861 1.082488 -0.237615
0.697854 1.082476 -0.241374
0.697857 1.082482 -0.245136
0.697832 1.082443 -0.248889
0.697753 1.082320 -0.252621
0.697654 1.082167 -0.256345
0.697611 1.082100 -0.260089
0.697641 1.082147 -0.263861
0.697698 1.082235 -0.267643
0.697769 1.082345 -0.271430
0.697836 1.082448 -0.275217
0.697965 1.082649 -0.279030
0.698184 1.082989 -0.282881
0.698419 1.083354 -0.286740
0.698551 1.083558 -0.290559
0.698532 1.083529 -0.294316
0.698975 1.084216 -0.298270
0.699293 1.084710 -0.302175
0.699565 1.085131 -0.306063
0.699883 1.085625 -0.309974
0.699839 1.085556 -0.313726
0.699466 1.084977 -0.317329
0.698851 1.084024 -0.320817
0.698566 1.083582 -0.324451
0.698076 1.082822 -0.327986
0.697596 1.082076 -0.331520
0.697240 1.081525 -0.335109
0.696997 1.081147 -0.338748
0.696692 1.080675 -0.342355
0.696314 1.080088 -0.345922
0.696086 1.079734 -0.349560
0.695922 1.079481 -0.353229
0.695605 1.078989 -0.356817
0.695193 1.078350 -0.360353
0.695089 1.078189 -0.364045
0.695862 1.079387 -0.368200
0.697458 1.081862 -0.372804
0.699221 1.084598 -0.377515
0.700621 1.086768 -0.382046
0.701758 1.088533 -0.386449
0.702885 1.090280 -0.390858
0.704012 1.092029 -0.395279
0.705256 1.093958 -0.399778
0.706408 1.095746 -0.404239
0.708751 1.099380 -0.409399
0.674804 1.041733 0.484395
0.674853 1.041808 0.480810
0.674817 1.041752 0.477164
0.674630 1.041463 0.473413
0.674407 1.041120 0.469640
0.674232 1.040849 0.465901
0.674076 1.040609 0.462178
0.673897 1.040332 0.458440
0.673711 1.040044 0.454700
0.673527 1.039761 0.450963
0.673366 1.039512 0.447243
0.673241 1.039319 0.443549
0.673120 1.039133 0.439859
0.672989 1.038930 0.436163
0.672856 1.038724 0.432467
0.672728 1.038528 0.428777
0.672553 1.038257 0.425058
0.672362 1.037963 0.421331
0.672267 1.037815 0.417665
0.672261 1.037806 0.414055
0.672243 1.037779 0.410439
0.672212 1.037731 0.406814
0.672212 1.037732 0.403208
0.672221 1.037745 0.399608
0.672255 1.037798 0.396022
0.672393 1.038010 0.392497
0.672629 1.038375 0.389026
0.672869 1.038745 0.385556
0.673095 1.039094 0.382075
0.673348 1.039485 0.378607
0.673661 1.039967 0.375169
0.674030 1.040537 0.371759
0.674440 1.041170 0.368368
0.674832 1.041775 0.364962
0.675167 1.042292 0.361522
0.675437 1.042709 0.358043
0.675663 1.043058 0.354539
0.675887 1.043404 0.351031
0.676126 1.043773 0.347529
0.676391 1.044183 0.344037
0.676684 1.044635 0.340556
0.676977 1.045087 0.337072
0.677245 1.045500 0.333573
0.677525 1.045933 0.330077
0.677795 1.046349 0.326572
0.678028 1.046710 0.323048
0.678220 1.047006 0.319501
0.678374 1.047244 0.315935
0.678489 1.047421 0.312350
0.678577 1.047557 0.308750
0.678655 1.047677 0.305145
0.678756 1.047833 0.301550
0.678920 1.048086 0.297981
0.679128 1.048407 0.294429
0.679328 1.048716 0.290872
0.679522 1.049015 0.287310
0.679764 1.049390 0.283767
0.680094 1.049899 0.280257
0.680514 1.050547 0.276779
0.680977 1.051262 0.273315
0.681421 1.051948 0.269838
0.681840 1.052594 0.266347
0.682227 1.053192 0.262838
0.682568 1.053718 0.259308
0.682886 1.054209 0.255766
0.683230 1.054741 0.252230
0.683638 1.055370 0.248714
0.684071 1.056038 0.245202
0.684508 1.056712 0.241687
0.684941 1.057381 0.238166
0.685355 1.058021 0.234634
0.685792 1.058695 0.231105
0.686301 1.059481 0.227595
0.686830 1.060298 0.224086
0.687323 1.061059 0.220561
0.687741 1.061704 0.217006
0.688104 1.062264 0.213429
0.688418 1.062748 0.209834
0.688700 1.063185 0.206226
0.688942 1.063557 0.202603
0.689114 1.063824 0.198957
0.689203 1.063962 0.195286
0.689249 1.064031 0.191602
0.689304 1.064117 0.187920
0.689363 1.064208 0.184238
0.689403 1.064270 0.180551
0.689417 1.064292 0.176857
0.689416 1.064290 0.173158
0.689384 1.064240 0.169452
0.689307 1.064122 0.165736
0.689220 1.063988 0.162018
0.689190 1.063940 0.158314
0.689235 1.064010 0.154628
0.689334 1.064163 0.150952
0.689444 1.064333 0.147278
0.689547 1.064491 0.143602
0.689678 1.064694 0.139929
0.689848 1.064957 0.136264
0.690033 1.065242 0.132599
0.690200 1.065500 0.128929
0.690383 1.065782 0.125260
0.690599 1.066117 0.121595
0.690839 1.066486 0.117931
0.691105 1.066897 0.114270
0.691458 1.067443 0.110619
0.691873 1.068083 0.106974
0.692261 1.068682 0.103321
0.692604 1.069211 0.099657
0.692950 1.069746 0.095990
0.693311 1.070303 0.092321
0.693655 1.070833 0.088646
0.694012 1.071385 0.084969
0.694360 1.071922 0.081287
0.694632 1.072341 0.077593
0.694823 1.072637 0.073888
0.695001 1.072912 0.070178
0.695197 1.073214 0.066469
0.695368 1.073478 0.062756
0.695493 1.073671 0.059036
0.695618 1.073865 0.055316
0.695779 1.074113 0.051596
0.695963 1.074396 0.047877
0.696151 1.074687 0.044156
0.696351 1.074996 0.040433
0.696564 1.075325 0.036709
0.696739 1.075595 0.032981
0.696813 1.075709 0.029247
0.696811 1.075706 0.025509
0.696842 1.075753 0.021773
0.696925 1.075881 0.018037
0.697010 1.076013 0.014300
0.697097 1.076148 0.010563
0.697252 1.076387 0.006825
0.697458 1.076705 0.003086
0.697642 1.076989 -0.000655
0.697799 1.077231 -0.004398
0.697936 1.077442 -0.008143
0.698025 1.077580 -0.011888
0.698071 1.077651 -0.015633
0.698099 1.077695 -0.019378
0.698131 1.077743 -0.023124
0.698147 1.077768 -0.026869
